3.15773 , 9.58661 , 4.1757
2.60529 , 7.73006 , 3.69483
2.58205 , 7.72632 , 3.84155
2.5361 , 7.63961 , 3.95638
2.5829 , 7.89095 , 4.21075
2.52281 , 7.75351 , 4.30732
2.32999 , 7.12073 , 4.17252
2.32844 , 7.19631 , 4.35269
2.22019 , 6.8665 , 4.33564
2.09917 , 6.47848 , 4.27601
2.22078 , 7.03695 , 4.71739
2.2166 , 7.10718 , 4.90916
2.20317 , 7.14787 , 5.08934
1.71873 , 5.26636 , 4.09299
1.68445 , 5.19412 , 4.16483
1.64676 , 5.11177 , 4.22945
1.63608 , 5.14248 , 4.36983
1.6655 , 5.34623 , 4.63746
1.62017 , 5.23389 , 4.68515
1.6155 , 5.30121 , 4.86737
1.56908 , 5.17884 , 4.90594
1.54715 , 5.17109 , 5.03495
1.57212 , 5.38502 , 5.35648
1.63436 , 5.79948 , 5.86862
1.46233 , 5.06322 , 5.36609
1.34858 , 4.59723 , 5.07606
1.31803 , 4.54641 , 5.16441
1.26542 , 4.37526 , 5.13264
1.22965 , 4.28816 , 5.18171
1.17433 , 4.09309 , 5.11249
1.2923 , 4.90571 , 6.15168
1.19493 , 4.47034 , 5.82615
1.1759 , 4.50199 , 6.02697
1.14873 , 4.49077 , 6.18361
1.11039 , 4.4137 , 6.26282
1.05882 , 4.23773 , 6.21412
1.00638 , 4.04168 , 6.12837
1.02924 , 4.43814 , 6.86644
0.980393 , 4.28101 , 6.84597
0.917003 , 3.9997 , 6.62993
0.877471 , 3.90294 , 6.68368
0.832044 , 3.75878 , 6.65889
0.892688 , 4.82924 , 8.67529
0.780333 , 3.931 , 7.39713
0.722873 , 3.62004 , 7.0807
0.649232 , 2.93615 , 6.03105
0.640294 , 3.43007 , 7.20616
0.583369 , 2.84227 , 6.25981
0.556997 , 3.17578 , 7.19797
0.513488 , 2.70242 , 6.41406
0.48767 , 1.78387 , 4.51303
0.464662 , 1.71518 , 4.50905
0.442236 , 1.66518 , 4.55023
0.418677 , 1.61421 , 4.59051
0.394715 , 1.57219 , 4.65825
0.370347 , 1.52807 , 4.7255
0.343151 , 1.49147 , 4.82055
0.279897 , 1.6743 , 5.66202
0.277638 , 1.46076 , 5.19213
0.279311 , 1.27513 , 4.76525
0.257305 , 1.21113 , 4.76985
0.147449 , 1.42391 , 5.98891
0.11029 , 1.36207 , 6.10238
0.086755 , 1.2612 , 6.02874
1.27202 , 1.47066 , -1.1376
1.28871 , 1.51743 , -1.13027
1.3104 , 1.57346 , -1.13823
1.33511 , 1.63471 , -1.15289
1.35801 , 1.69313 , -1.15801
1.37958 , 1.75116 , -1.16149
1.41082 , 1.8264 , -1.18705
1.43357 , 1.88691 , -1.1873
1.46261 , 1.95883 , -1.20107
1.48744 , 2.02637 , -1.20553
1.51641 , 2.10016 , -1.21542
1.54851 , 2.18052 , -1.23045
1.58416 , 2.26947 , -1.25046
1.61732 , 2.35268 , -1.26061
1.65607 , 2.44998 , -1.28227
1.69579 , 2.54872 , -1.30089
1.73107 , 2.64212 , -1.31
1.7775 , 2.75766 , -1.33593
1.82462 , 2.87381 , -1.35803
1.87072 , 2.99199 , -1.37666
1.92116 , 3.11912 , -1.39761
1.97495 , 3.25548 , -1.4207
2.0284 , 3.39288 , -1.43921
2.08975 , 3.54782 , -1.46501
2.15748 , 3.71887 , -1.49675
2.22597 , 3.892 , -1.52262
2.3125 , 4.10677 , -1.56941
2.40206 , 4.33175 , -1.61396
2.49151 , 4.5604 , -1.65112
2.59274 , 4.81526 , -1.69477
2.69686 , 5.08076 , -1.73433
2.81967 , 5.3903 , -1.78748
2.94895 , 5.72069 , -1.8388
3.08959 , 6.07859 , -1.89085
3.24776 , 6.48302 , -1.95098
3.41725 , 6.91672 , -2.00845
3.40363 , 6.93862 , -1.86845
3.39629 , 6.97525 , -1.73604
3.38481 , 7.00006 , -1.59972
3.41634 , 7.12696 , -1.50248
3.38847 , 7.11346 , -1.35257
3.40779 , 7.21149 , -1.2419
6.54084 , 14.8934 , -3.17441
8.47894 , 19.7238 , -4.17563
18.0918 , 44.4491 , -7.32988
21.3635 , 53.0543 , -7.94353
21.2854 , 53.2526 , -6.96379
21.1724 , 53.3613 , -5.97154
18.2858 , 46.2934 , -4.1691
18.6065 , 48.1955 , -1.69814
17.3377 , 50.518 , 12.0894
3.65812 , 9.79105 , 3.30687
3.53005 , 9.65512 , 3.81083
3.49524 , 9.63387 , 3.98603
2.88395 , 7.79434 , 3.55234
2.83835 , 7.72278 , 3.67478
3.22285 , 9.03276 , 4.31427
3.25251 , 9.21788 , 4.5633
3.1821 , 9.07707 , 4.68699
3.1059 , 8.9173 , 4.7985
2.56614 , 7.20247 , 4.19519
2.36767 , 6.60702 , 4.05627
2.31757 , 6.50929 , 4.14337
2.28074 , 6.45432 , 4.24987
2.37552 , 6.85766 , 4.60536
2.3895 , 6.98959 , 4.82751
2.36401 , 6.98161 , 4.97646
2.19814 , 6.46498 , 4.81569
1.84298 , 5.23936 , 4.18225
1.83151 , 5.26413 , 4.31837
1.76687 , 5.09206 , 4.32354
1.70847 , 4.93756 , 4.33475
1.81577 , 5.43134 , 4.81702
1.77805 , 5.36471 , 4.90163
1.68383 , 5.06586 , 4.80237
1.73047 , 5.34172 , 5.15963
1.66604 , 5.16401 , 5.15303
1.58159 , 4.90039 , 5.06298
1.55146 , 4.85828 , 5.16348
1.51298 , 4.78624 , 5.23629
1.49089 , 4.78396 , 5.37629
1.4025 , 4.47747 , 5.2167
1.32192 , 4.19876 , 5.06868
1.29495 , 4.16812 , 5.17247
1.31794 , 4.38892 , 5.55521
1.30062 , 4.42204 , 5.74492
1.39408 , 5.05293 , 6.6488
1.32499 , 4.83177 , 6.56902
1.28534 , 4.77433 , 6.68553
1.23408 , 4.64801 , 6.71446
1.1489 , 4.30797 , 6.45269
1.0978 , 4.16345 , 6.43969
1.05759 , 4.0933 , 6.52973
1.02378 , 4.06071 , 6.67673
0.973683 , 3.91647 , 6.65613
0.960688 , 4.0737 , 7.11499
0.901571 , 3.85776 , 6.98112
0.88477 , 4.03592 , 7.51607
0.806086 , 3.59653 , 6.97555
0.75983 , 3.46777 , 6.96829
0.68608 , 2.94208 , 6.18479
0.65071 , 2.89876 , 6.3086
0.614974 , 2.86427 , 6.45938
0.58474 , 3.0621 , 7.12889
0.540711 , 2.88342 , 6.98999
0.500289 , 1.74219 , 4.51969
0.475878 , 1.6817 , 4.53328
0.451062 , 1.6291 , 4.56417
0.426331 , 1.58836 , 4.63208
0.400705 , 1.5426 , 4.68994
0.37323 , 1.49807 , 4.75654
0.308956 , 1.72654 , 5.72064
0.279975 , 1.63674 , 5.69384
0.302953 , 1.29157 , 4.72075
0.277271 , 1.2366 , 4.75438
0.248533 , 1.18923 , 4.82605
0.135151 , 1.39164 , 6.04667
0.102632 , 1.30923 , 6.06142
0.0808091 , 1.20273 , 5.94745
1.30206 , 1.42226 , -1.11714
1.32562 , 1.47641 , -1.12689
1.34929 , 1.53185 , -1.13529
1.36972 , 1.58274 , -1.13405
1.39967 , 1.64964 , -1.15577
1.42012 , 1.70214 , -1.15182
1.44788 , 1.76563 , -1.16213
1.47788 , 1.83568 , -1.1787
1.50869 , 1.906 , -1.19301
1.53626 , 1.97173 , -1.19778
1.57054 , 2.05091 , -1.21588
1.59806 , 2.11851 , -1.21687
1.6332 , 2.19947 , -1.23038
1.67142 , 2.28714 , -1.24846
1.70642 , 2.3702 , -1.25711
1.75218 , 2.47318 , -1.28354
1.79373 , 2.57185 , -1.30036
1.83624 , 2.67197 , -1.31405
1.88294 , 2.77981 , -1.33112
1.93283 , 2.89573 , -1.35102
1.98266 , 3.01349 , -1.36722
2.04027 , 3.14751 , -1.39196
2.09851 , 3.28233 , -1.41211
2.17121 , 3.44858 , -1.45092
2.23695 , 3.60218 , -1.4729
2.31026 , 3.77265 , -1.5008
2.3913 , 3.96117 , -1.53374
2.48409 , 4.17435 , -1.57559
2.5768 , 4.39113 , -1.61034
2.68466 , 4.64161 , -1.65703
2.7888 , 4.88736 , -1.69048
2.90888 , 5.16714 , -1.73332
3.04428 , 5.48347 , -1.78429
3.18782 , 5.81936 , -1.8326
3.35415 , 6.20897 , -1.8936
3.46868 , 6.49454 , -1.88984
3.43123 , 6.46478 , -1.73348
3.44842 , 6.54928 , -1.62978
3.44184 , 6.58135 , -1.50328
3.41739 , 6.57747 , -1.36371
3.39676 , 6.57914 , -1.2283
3.3987 , 6.6302 , -1.11151
3.42006 , 6.72417 , -1.00789
3.49096 , 6.9307 , -0.935673
3.54568 , 7.10167 , -0.846554
9.46775 , 20.4949 , -4.14517
18.3107 , 41.3025 , -7.03311
27.5541 , 63.499 , -8.93772
27.5221 , 63.8831 , -7.77253
15.0234 , 34.9669 , -2.44175
14.9283 , 34.9897 , -1.78698
14.935 , 35.2609 , -1.15031
14.8956 , 35.42 , -0.501016
14.6623 , 35.105 , 0.163932
14.64 , 35.3079 , 0.811709
15.0738 , 36.6514 , 1.47937
15.05 , 36.8618 , 2.16122
3.87399 , 9.61229 , 3.4174
3.82805 , 9.56343 , 3.58299
3.79992 , 9.56572 , 3.76314
3.62487 , 9.3131 , 4.22088
3.46141 , 8.92143 , 4.25512
3.41573 , 8.86682 , 4.40846
3.46332 , 9.09254 , 4.67711
3.38132 , 8.9357 , 4.79071
3.17074 , 8.3849 , 4.72087
3.30965 , 8.89459 , 5.13519
2.55277 , 6.64211 , 4.19843
2.49947 , 6.54427 , 4.28624
2.54196 , 6.75061 , 4.53638
2.51617 , 6.7408 , 4.67615
2.37297 , 6.35299 , 4.59611
2.29104 , 6.15943 , 4.61892
2.10965 , 5.63191 , 4.42255
1.96835 , 5.22396 , 4.28316
2.0361 , 5.52017 , 4.60667
2.04714 , 5.6327 , 4.81787
2.24389 , 6.40066 , 5.51799
2.18149 , 6.27011 , 5.57911
1.8163 , 5.04155 , 4.7725
1.81289 , 5.10551 , 4.95525
1.74102 , 4.91796 , 4.93285
1.73698 , 4.98379 , 5.12387
1.80587 , 5.33683 , 5.58089
1.64335 , 4.79194 , 5.22704
1.59578 , 4.6911 , 5.27176
1.52294 , 4.48604 , 5.20944
1.48346 , 4.41491 , 5.2753
1.42516 , 4.26088 , 5.25342
1.4308 , 4.38811 , 5.53419
1.37255 , 4.23226 , 5.50862
1.39534 , 4.45184 , 5.91567
1.49515 , 5.05675 , 6.81335
1.40816 , 4.78008 , 6.66244
1.37497 , 4.76393 , 6.83373
1.31381 , 4.60753 , 6.82235
1.1684 , 3.98151 , 6.15352
1.14565 , 4.01504 , 6.37922
1.13334 , 4.12475 , 6.73138
1.09691 , 4.09966 , 6.89623
1.09024 , 4.28237 , 7.39935
1.01339 , 4.00103 , 7.16709
0.97762 , 4.00875 , 7.40989
0.906149 , 3.72654 , 7.14945
0.839683 , 3.46294 , 6.89855
0.750396 , 2.90351 , 6.05542
0.719508 , 2.92688 , 6.30347
0.679512 , 2.85064 , 6.36438
0.641131 , 2.80766 , 6.49642
0.59943 , 2.7322 , 6.56412
0.537167 , 1.78084 , 4.5576
0.510514 , 1.70898 , 4.54409
0.484437 , 1.64976 , 4.55675
0.458694 , 1.60331 , 4.60603
0.430367 , 1.5653 , 4.68281
0.403574 , 1.51264 , 4.72118
0.374196 , 1.47448 , 4.80614
0.310457 , 1.67967 , 5.72445
0.282987 , 1.56606 , 5.61002
0.298954 , 1.26065 , 4.73915
0.27259 , 1.20063 , 4.7527
0.171424 , 1.38707 , 5.85511
0.122644 , 1.35018 , 6.06487
0.0930499 , 1.25573 , 6.00989
1.3613 , 1.43469 , -1.12324
1.38285 , 1.48492 , -1.12383
1.40527 , 1.53523 , -1.12304
1.43386 , 1.59561 , -1.13722
1.46255 , 1.65737 , -1.14975
1.48799 , 1.71457 , -1.15265
1.52073 , 1.78282 , -1.16953
1.54616 , 1.84172 , -1.16932
1.58289 , 1.91665 , -1.18978
1.61564 , 1.98819 , -1.20093
1.64516 , 2.05513 , -1.20264
1.68306 , 2.13424 , -1.21676
1.72308 , 2.22024 , -1.23567
1.76107 , 2.30239 , -1.24512
1.80636 , 2.39726 , -1.26564
1.84744 , 2.48778 , -1.27665
1.89598 , 2.59217 , -1.29805
1.94202 , 2.69083 , -1.3095
1.99913 , 2.8118 , -1.33699
2.05274 , 2.92732 , -1.35436
2.11389 , 3.05817 , -1.38007
2.16834 , 3.17721 , -1.38964
2.23368 , 3.3191 , -1.41281
2.30763 , 3.47746 , -1.44255
2.38988 , 3.65156 , -1.4777
2.47214 , 3.82895 , -1.50711
2.5674 , 4.03159 , -1.54619
2.66667 , 4.24419 , -1.58311
2.76993 , 4.46682 , -1.61757
2.88594 , 4.71543 , -1.6585
3.00605 , 4.97541 , -1.69542
3.13777 , 5.26213 , -1.73648
3.28221 , 5.57664 , -1.78041
3.45197 , 5.94203 , -1.83754
3.64309 , 6.35324 , -1.90157
3.58311 , 6.28352 , -1.72666
3.4639 , 6.09425 , -1.50479
3.43593 , 6.08229 , -1.36788
3.42851 , 6.11082 , -1.24927
3.41503 , 6.12792 , -1.12719
3.41432 , 6.1693 , -1.01468
3.44233 , 6.26898 , -0.921111
3.5796 , 6.68306 , -0.655639
14.9761 , 31.2013 , -4.66298
15.8168 , 33.9301 , -2.54032
15.8048 , 34.14 , -1.91258
15.5411 , 33.7937 , -1.2422
15.6498 , 34.2745 , -0.628412
15.7711 , 35.0358 , 0.648854
15.9081 , 35.5998 , 1.30754
15.1086 , 34.5028 , 3.22608
15.7854 , 37.1652 , 6.16539
15.0789 , 36.0015 , 7.35155
15.094 , 36.3171 , 8.09086
4.23678 , 9.58584 , 3.03431
4.20819 , 9.66358 , 3.41046
4.0995 , 9.46348 , 3.53698
4.1097 , 9.56629 , 3.7459
4.04874 , 9.48682 , 3.903
3.88457 , 9.21443 , 4.17205
3.83563 , 9.1632 , 4.33272
3.51081 , 8.37071 , 4.20247
3.27353 , 7.80262 , 4.13393
3.26355 , 7.84665 , 4.30898
3.36151 , 8.19028 , 4.62362
3.35569 , 8.25153 , 4.82079
2.86635 , 6.95239 , 4.3464
2.73006 , 6.63425 , 4.32679
2.66681 , 6.51915 , 4.40563
2.64674 , 6.52912 , 4.55134
2.56921 , 6.37054 , 4.60111
2.55621 , 6.40162 , 4.76078
2.43574 , 6.11123 , 4.72158
2.13285 , 5.25956 , 4.30177
2.31123 , 5.87399 , 4.84267
2.15389 , 5.45382 , 4.68594
2.14894 , 5.50972 , 4.85837
2.36631 , 6.28006 , 5.57943
2.22971 , 5.92197 , 5.45801
1.89658 , 4.90328 , 4.78452
1.85834 , 4.84674 , 4.8665
1.84572 , 4.87833 , 5.02402
1.75368 , 4.63607 , 4.94174
1.91112 , 5.2725 , 5.66504
1.77416 , 4.8696 , 5.43356
1.6917 , 4.65694 , 5.36865
1.5817 , 4.33708 , 5.18466
1.54828 , 4.29408 , 5.27689
1.50766 , 4.22927 , 5.34658
1.55055 , 4.49603 , 5.79226
1.7022 , 5.22615 , 6.80337
1.62248 , 5.02395 , 6.75161
1.56431 , 4.9112 , 6.80224
1.49873 , 4.76062 , 6.80351
1.45227 , 4.69581 , 6.91182
1.39742 , 4.59343 , 6.97084
1.3571 , 4.56363 , 7.13368
1.28247 , 4.35702 , 7.04147
1.24696 , 4.35686 , 7.25163
1.18102 , 4.19026 , 7.21065
1.10352 , 3.94378 , 7.02916
1.04923 , 3.8303 , 7.05558
1.01182 , 3.82923 , 7.27937
0.942417 , 3.60741 , 7.10988
0.820235 , 2.92226 , 6.04179
0.792279 , 2.9649 , 6.32549
0.843336 , 3.87702 , 8.41826
0.703208 , 2.77666 , 6.36538
0.668669 , 2.83154 , 6.71541
0.613183 , 2.54103 , 6.2871
0.548588 , 1.7384 , 4.56423
0.520037 , 1.67185 , 4.55884
0.492065 , 1.61293 , 4.57068
0.462971 , 1.5933 , 4.69464
0.433709 , 1.53829 , 4.7238
0.405014 , 1.48595 , 4.76144
0.369371 , 1.48451 , 4.97034
0.31054 , 1.61682 , 5.66978
0.321879 , 1.28638 , 4.73351
0.294251 , 1.22474 , 4.73776
0.26285 , 1.17895 , 4.80878
0.146324 , 1.38817 , 6.05847
0.106779 , 1.31344 , 6.1019
0.0837163 , 1.20208 , 5.94781
1.39091 , 1.38884 , -1.1113
1.41833 , 1.44217 , -1.12037
1.44153 , 1.49117 , -1.11985
1.468 , 1.5463 , -1.12642
1.49534 , 1.60155 , -1.13141
1.52566 , 1.66212 , -1.14263
1.55706 , 1.7238 , -1.15226
1.59166 , 1.79186 , -1.16783
1.62325 , 1.8563 , -1.17407
1.65779 , 1.92622 , -1.18585
1.69336 , 1.99738 , -1.19547
1.72878 , 2.069 , -1.20304
1.76852 , 2.14797 , -1.21565
1.81559 , 2.23953 , -1.23982
1.85094 , 2.31471 , -1.24049
1.90748 , 2.4212 , -1.27256
1.94713 , 2.50544 , -1.27506
1.99918 , 2.60841 , -1.29403
2.05242 , 2.71383 , -1.30987
2.10885 , 2.82732 , -1.32862
2.17477 , 2.95566 , -1.35567
2.23181 , 3.07166 , -1.36662
2.30193 , 3.21102 , -1.39123
2.38045 , 3.36583 , -1.4225
2.4675 , 3.53731 , -1.45947
2.55119 , 3.70459 , -1.48526
2.63877 , 3.88051 , -1.51035
2.73934 , 4.08174 , -1.54481
2.85351 , 4.30745 , -1.58686
2.96851 , 4.53671 , -1.62093
3.0917 , 4.78368 , -1.65612
3.23203 , 5.06546 , -1.70056
3.38134 , 5.36532 , -1.74339
3.54426 , 5.69297 , -1.78798
3.73362 , 6.07251 , -1.84469
3.50146 , 5.69777 , -1.52716
3.47352 , 5.688 , -1.39485
3.44079 , 5.66726 , -1.26032
3.44319 , 5.70965 , -1.15438
3.43995 , 5.74264 , -1.04479
3.43968 , 5.78269 , -0.938118
3.47085 , 5.87931 , -0.85051
3.65128 , 6.38858 , -0.505158
18.7002 , 36.2444 , -5.86329
26.8754 , 53.1133 , -6.99003
16.4671 , 32.933 , -2.00015
16.4132 , 33.0455 , -1.37522
16.3754 , 33.8837 , 1.14176
16.4043 , 34.1819 , 1.78818
15.6565 , 33.0458 , 3.00757
15.5432 , 33.0324 , 3.62815
15.5749 , 33.3361 , 4.27908
16.124 , 34.7883 , 5.07654
16.0555 , 34.8884 , 5.74604
15.9541 , 34.9154 , 6.40904
15.2708 , 33.6306 , 6.84627
15.235 , 33.7998 , 7.51763
4.44836 , 9.40524 , 3.15109
4.41113 , 9.39045 , 3.32414
4.44182 , 9.5338 , 3.54023
4.40565 , 9.52184 , 3.71806
4.25618 , 9.24126 , 3.81315
4.2477 , 9.29452 , 4.00916
4.10299 , 9.01995 , 4.09328
4.04918 , 8.96259 , 4.24901
3.70166 , 8.18026 , 4.12032
3.59405 , 7.98325 , 4.20223
3.55304 , 7.95008 , 4.348
3.50797 , 7.90545 , 4.48937
3.45815 , 7.85039 , 4.62545
3.81085 , 8.8334 , 5.27701
2.83355 , 6.37171 , 4.1879
2.7811 , 6.29477 , 4.28124
2.88754 , 6.63825 , 4.61032
2.55031 , 5.79882 , 4.26422
2.61355 , 6.03023 , 4.53336
2.53335 , 5.87613 , 4.57113
2.30443 , 5.30502 , 4.3308
2.28393 , 5.30522 , 4.45422
2.31695 , 5.4603 , 4.68911
2.3049 , 5.49349 , 4.84488
2.21278 , 5.2921 , 4.82789
2.21954 , 5.38095 , 5.03127
2.18449 , 5.34513 , 5.14098
1.97482 , 4.78033 , 4.80712
1.9273 , 4.70283 , 4.86816
1.86866 , 4.58835 , 4.89468
1.8389 , 4.56694 , 5.0042
1.80231 , 4.52205 , 5.09364
1.74416 , 4.40605 , 5.11345
1.67881 , 4.26328 , 5.10197
1.65743 , 4.26949 , 5.24319
1.62851 , 4.25329 , 5.36362
1.57532 , 4.14877 , 5.38892
1.63923 , 4.47473 , 5.91212
1.74215 , 4.96745 , 6.66783
1.69995 , 4.93183 , 6.81046
1.62407 , 4.75965 , 6.78141
1.57488 , 4.69661 , 6.88994
1.5198 , 4.60721 , 6.96564
1.30183 , 3.80423 , 6.02567
1.39083 , 4.34124 , 6.98845
1.35855 , 4.36006 , 7.22304
1.19797 , 3.74819 , 6.47762
1.21596 , 4.01834 , 7.11259
1.14397 , 3.8283 , 7.01221
1.10951 , 3.85038 , 7.27005
1.05603 , 3.76884 , 7.3552
0.892571 , 2.94327 , 6.03698
0.854639 , 2.90682 , 6.16049
0.820551 , 2.91506 , 6.38244
0.772493 , 2.82375 , 6.40667
0.724812 , 2.72797 , 6.41992
0.668867 , 2.51368 , 6.15589
0.588163 , 1.78644 , 4.63034
0.556877 , 1.70062 , 4.57944
0.526193 , 1.63842 , 4.58237
0.497051 , 1.60683 , 4.66884
0.466049 , 1.55937 , 4.71713
0.435374 , 1.50153 , 4.73603
0.404294 , 1.4587 , 4.80146
0.339837 , 1.67923 , 5.77772
0.346284 , 1.31578 , 4.74739
0.317155 , 1.25054 , 4.73241
0.287151 , 1.19233 , 4.74527
0.186709 , 1.37657 , 5.83796
0.13428 , 1.34046 , 6.03699
0.0986285 , 1.25349 , 6.01081
1.45454 , 1.4028 , -1.12503
1.47269 , 1.44273 , -1.10843
1.50092 , 1.4963 , -1.11535
1.53314 , 1.55492 , -1.12865
1.56234 , 1.60995 , -1.13243
1.59454 , 1.67027 , -1.14262
1.63188 , 1.73652 , -1.15861
1.66021 , 1.79481 , -1.15784
1.70154 , 1.86772 , -1.1775
1.73485 , 1.93241 , -1.18048
1.77632 , 2.00825 , -1.19596
1.81784 , 2.08561 , -1.2091
1.85614 , 2.15833 , -1.21301
1.90177 , 2.24365 , -1.22847
1.95686 , 2.34227 , -1.25465
1.99904 , 2.42365 , -1.25776
2.0551 , 2.52538 , -1.2779
2.10573 , 2.62204 , -1.28845
2.17012 , 2.7394 , -1.31448
2.231 , 2.85133 , -1.33039
2.30063 , 2.97931 , -1.35472
2.3648 , 3.10232 , -1.36898
2.44884 , 3.25338 , -1.40157
2.53196 , 3.40782 , -1.42913
2.62968 , 3.58481 , -1.46737
2.71774 , 3.7508 , -1.48905
2.81955 , 3.94081 , -1.52037
2.93574 , 4.15403 , -1.55945
3.05732 , 4.37905 , -1.59597
3.17829 , 4.60592 , -1.62432
3.31842 , 4.86693 , -1.66276
3.47184 , 5.15338 , -1.70451
3.63017 , 5.45144 , -1.74019
3.82549 , 5.81575 , -1.79733
3.51088 , 5.32927 , -1.42288
3.49198 , 5.33461 , -1.30318
3.47714 , 5.34642 , -1.18792
3.46168 , 5.35514 , -1.07315
3.46302 , 5.3947 , -0.971997
3.46923 , 5.44097 , -0.873232
3.50275 , 5.5359 , -0.790929
3.65676 , 5.9579 , -0.446955
19.0419 , 34.2648 , -5.74772
18.9564 , 34.3369 , -5.06607
17.5897 , 32.4578 , -2.78764
17.348 , 32.2147 , -2.12539
17.3141 , 32.367 , -1.50794
17.2714 , 32.5001 , -0.886628
16.9148 , 32.0292 , -0.238737
16.8726 , 32.1608 , 0.375567
16.855 , 32.3446 , 0.992848
17.0515 , 33.1748 , 2.2612
10.0455 , 19.5172 , 2.49312
16.28 , 32.2983 , 4.07538
16.4455 , 32.8627 , 4.7549
17.5749 , 35.4159 , 5.72221
16.1667 , 32.983 , 6.65893
16.1358 , 33.1572 , 7.32509
4.68964 , 9.16019 , 2.90649
4.70813 , 9.26585 , 3.10366
4.62489 , 9.15539 , 3.25192
4.56252 , 9.08762 , 3.40802
4.56327 , 9.15819 , 3.60224
4.59415 , 9.29475 , 3.82132
4.47634 , 9.10462 , 3.93936
3.72446 , 7.49619 , 3.55504
3.69229 , 7.48209 , 3.69695
3.71534 , 7.59606 , 3.88889
3.76604 , 7.77414 , 4.11395
3.64372 , 7.55574 , 4.17646
3.81999 , 8.03231 , 4.54667
3.753 , 7.94435 , 4.67081
3.67892 , 7.83699 , 4.7842
3.76009 , 8.10378 , 5.08832
2.97559 , 6.28018 , 4.2761
3.10759 , 6.66292 , 4.62741
2.80822 , 5.98741 , 4.37714
2.67549 , 5.71503 , 4.34428
2.76073 , 5.98996 , 4.64686
2.49563 , 5.37622 , 4.38067
2.42489 , 5.25162 , 4.41999
2.47139 , 5.42973 , 4.67052
2.40721 , 5.32445 , 4.72467
2.37872 , 5.31026 , 4.84519
2.31893 , 5.21152 , 4.90066
2.18732 , 4.91756 , 4.79545
2.0366 , 4.56115 , 4.62471
1.98824 , 4.48742 , 4.68268
1.90989 , 4.32686 , 4.66109
1.84675 , 4.20404 , 4.66737
1.87051 , 4.34069 , 4.91889
1.82037 , 4.25629 , 4.96382
1.76078 , 4.14484 , 4.97849
1.77646 , 4.2684 , 5.23832
1.70621 , 4.12022 , 5.21516
1.63194 , 3.96165 , 5.17256
1.76308 , 4.47659 , 5.90695
1.82632 , 4.78719 , 6.44139
1.75745 , 4.65856 , 6.45842
1.75518 , 4.76584 , 6.77539
1.70422 , 4.7044 , 6.88445
1.63861 , 4.5874 , 6.92089
1.605 , 4.59646 , 7.1322
1.45848 , 4.15342 , 6.69064
1.4157 , 4.1185 , 6.83092
1.28934 , 3.72703 , 6.4189
1.22924 , 3.60437 , 6.40933
1.19299 , 3.59994 , 6.59296
1.12776 , 3.45091 , 6.53624
1.06171 , 3.29059 , 6.44942
1.00774 , 3.19027 , 6.46364
0.902728 , 2.77056 , 5.85483
0.903206 , 3.00245 , 6.51245
0.843012 , 2.84649 , 6.40299
0.793324 , 2.75635 , 6.42581
0.740833 , 2.64548 , 6.40109
0.683302 , 2.44722 , 6.16179
0.595695 , 1.72384 , 4.59086
0.563994 , 1.67306 , 4.62228
0.531408 , 1.61118 , 4.62447
0.49988 , 1.58909 , 4.73874
0.467218 , 1.52578 , 4.73899
0.435122 , 1.47119 , 4.76681
0.400208 , 1.44226 , 4.87949
0.281501 , 2.06906 , 7.32934
0.341783 , 1.27488 , 4.7272
0.311246 , 1.21284 , 4.72095
0.272329 , 1.18499 , 4.85941
0.161356 , 1.37466 , 6.02142
0.12659 , 1.27744 , 5.93676
0.0863793 , 1.19946 , 5.93832
1.50869 , 1.40235 , -1.11318
1.53455 , 1.44978 , -1.11199
1.56466 , 1.50312 , -1.11779
1.59465 , 1.55681 , -1.12203
1.62982 , 1.6163 , -1.13264
1.66796 , 1.68117 , -1.14928
1.69495 , 1.73289 , -1.14127
1.73401 , 1.79936 , -1.15409
1.77745 , 1.87303 , -1.17263
1.81641 , 1.94145 , -1.18127
1.85667 , 2.01202 , -1.18815
1.89556 , 2.08236 , -1.19271
1.94494 , 2.16553 , -1.20895
1.99761 , 2.25647 , -1.22946
2.04681 , 2.34189 , -1.24016
2.09602 , 2.42891 , -1.24823
2.15463 , 2.5294 , -1.26625
2.21765 , 2.63864 , -1.28746
2.28553 , 2.75464 , -1.31086
2.34917 , 2.86638 , -1.32437
2.42325 , 2.99279 , -1.34586
2.50575 , 3.13457 , -1.3744
2.59345 , 3.28541 , -1.40368
2.68171 , 3.43729 , -1.4273
2.77439 , 3.59956 , -1.45129
2.88277 , 3.7854 , -1.48477
2.99064 , 3.97277 , -1.51145
3.11765 , 4.19266 , -1.55103
3.24526 , 4.41515 , -1.58241
3.39255 , 4.66958 , -1.62376
3.54056 , 4.92787 , -1.65576
3.70732 , 5.21986 , -1.6954
3.8894 , 5.53828 , -1.73628
3.52434 , 5.0067 , -1.33556
3.51023 , 5.01965 , -1.22411
3.49549 , 5.0295 , -1.11313
3.48921 , 5.05459 , -1.00979
3.48765 , 5.08521 , -0.909617
3.49936 , 5.13801 , -0.818395
3.52663 , 5.21476 , -0.734918
3.57133 , 5.3232 , -0.66028
3.60073 , 5.40625 , -0.574365
3.62948 , 5.48792 , -0.48572
3.74853 , 5.75892 , -0.328881
19.0808 , 31.985 , -5.55075
19.0189 , 32.0892 , -4.90934
18.7309 , 32.2202 , -2.96977
18.6365 , 32.266 , -2.32961
18.6702 , 32.5373 , -1.71099
18.3214 , 32.128 , -1.04065
18.6211 , 33.0941 , 0.195948
18.2637 , 32.6615 , 0.844501
18.3974 , 33.1219 , 1.48614
15.2999 , 27.6228 , 1.94618
15.2565 , 27.7254 , 2.48552
10.8102 , 19.5905 , 2.43261
17.7652 , 32.8284 , 4.02354
15.9156 , 29.5425 , 4.29215
15.8739 , 29.6649 , 4.87813
15.8349 , 29.7943 , 5.47105
15.7081 , 29.757 , 6.04144
14.0399 , 26.7098 , 6.04145
5.00138 , 9.13556 , 2.88665
4.84962 , 8.90072 , 3.00702
4.97954 , 9.22204 , 3.25732
16.9553 , 33.3453 , 9.911
4.88565 , 9.16655 , 3.59713
3.94528 , 7.42541 , 3.52837
3.83894 , 7.25928 , 3.61368
4.04412 , 7.74873 , 3.9488
3.97046 , 7.65463 , 4.06581
3.89659 , 7.55787 , 4.17981
3.98645 , 7.81241 , 4.45044
3.94354 , 7.7868 , 4.60001
3.75321 , 7.43437 , 4.58865
3.71037 , 7.40524 , 4.73142
3.42244 , 6.82552 , 4.57662
3.338 , 6.69732 , 4.65315
3.0136 , 6.02071 , 4.40311
2.8024 , 5.59252 , 4.27512
2.98963 , 6.0811 , 4.71127
2.80864 , 5.7164 , 4.61137
2.58955 , 5.25476 , 4.42918
2.67212 , 5.50987 , 4.73439
2.55183 , 5.27628 , 4.69565
2.57421 , 5.39271 , 4.91391
2.52496 , 5.33168 , 5.00163
2.42521 , 5.14284 , 4.98535
2.17784 , 4.57491 , 4.64199
2.11035 , 4.45941 , 4.66315
2.02727 , 4.30121 , 4.64222
2.00496 , 4.29981 , 4.76083
2.06 , 4.51257 , 5.08733
1.96697 , 4.32382 , 5.03391
1.85264 , 4.07107 , 4.90485
1.79536 , 3.97595 , 4.93009
1.81377 , 4.09774 , 5.18971
1.75843 , 4.0055 , 5.22101
1.73356 , 4.00913 , 5.3608
1.93991 , 4.72321 , 6.35987
1.92919 , 4.7937 , 6.62109
1.51373 , 3.55852 , 5.22078
1.46179 , 3.4737 , 5.24634
1.76302 , 4.58756 , 6.90823
1.68912 , 4.45559 , 6.91834
1.52282 , 3.98415 , 6.42766
1.51825 , 4.09612 , 6.77968
1.39246 , 3.75015 , 6.43575
1.33087 , 3.63993 , 6.44382
1.26947 , 3.52914 , 6.44936
1.2023 , 3.39449 , 6.40898
1.12463 , 3.19839 , 6.25229
1.0264 , 2.89033 , 5.87071
0.960518 , 2.71756 , 5.71897
0.933052 , 2.74994 , 5.96391
0.907404 , 2.81875 , 6.30057
0.862373 , 2.77749 , 6.42279
0.808603 , 2.68111 , 6.42585
0.757185 , 2.59576 , 6.45455
0.635018 , 1.73887 , 4.58362
0.601817 , 1.68552 , 4.60594
0.602258 , 2.3286 , 6.5014
0.54892 , 2.16974 , 6.31518
0.501512 , 1.5706 , 4.80862
0.467197 , 1.49141 , 4.76073
0.431984 , 1.44144 , 4.79694
0.395412 , 1.41481 , 4.91874
0.316778 , 1.67316 , 6.10095
0.335616 , 1.2363 , 4.71624
0.30172 , 1.18506 , 4.7479
0.201026 , 1.36629 , 5.82069
0.146406 , 1.32759 , 5.99958
0.103245 , 1.25144 , 6.01151
1.57131 , 1.40814 , -1.11681
1.5901 , 1.44719 , -1.09864
1.62596 , 1.50397 , -1.11136
1.66193 , 1.5621 , -1.12253
1.69465 , 1.61567 , -1.12407
1.73466 , 1.68033 , -1.13949
1.76737 , 1.73562 , -1.13783
1.80829 , 1.80189 , -1.14944
1.85027 , 1.86935 , -1.15908
1.89635 , 1.94317 , -1.17375
1.94224 , 2.01753 , -1.186
1.98819 , 2.09339 , -1.19601
2.03517 , 2.17054 , -1.20366
2.09138 , 2.25997 , -1.22214
2.14337 , 2.34508 , -1.23101
2.19937 , 2.43682 , -1.24365
2.25656 , 2.531 , -1.25326
2.33243 , 2.65076 , -1.28442
2.39963 , 2.75927 , -1.29909
2.47631 , 2.88265 , -1.32196
2.55825 , 3.01492 , -1.34635
2.64517 , 3.15525 , -1.37156
2.73291 , 3.29747 , -1.3917
2.83527 , 3.46217 , -1.42281
2.93861 , 3.62994 , -1.44807
3.05209 , 3.81333 , -1.47713
3.17586 , 4.0135 , -1.50921
3.30458 , 4.22349 , -1.53872
3.44874 , 4.45786 , -1.57413
3.60417 , 4.71044 , -1.60962
3.7696 , 4.9807 , -1.64415
3.92405 , 5.23959 , -1.66048
3.53709 , 4.71285 , -1.25756
3.52305 , 4.72392 , -1.14999
3.51403 , 4.74126 , -1.04675
3.50264 , 4.75702 , -0.94385
3.51173 , 4.80169 , -0.85438
3.51022 , 4.83048 , -0.757897
3.54373 , 4.91256 , -0.68184
3.71903 , 5.34582 , -0.273346
18.8394 , 29.4672 , -5.27587
19.226 , 30.2787 , -4.81269
19.5427 , 31.3873 , -3.07682
19.5748 , 31.6429 , -2.46485
19.5796 , 31.8558 , -1.84281
19.681 , 32.2304 , -1.22758
14.8869 , 24.4037 , -0.184583
14.9284 , 24.6313 , 0.29359
14.8882 , 24.7233 , 0.780268
14.864 , 24.8422 , 1.26905
14.9103 , 25.0828 , 1.76489
14.8052 , 25.0667 , 2.25604
14.7668 , 25.1637 , 2.75375
14.6732 , 25.1671 , 3.24608
14.6542 , 25.301 , 3.75262
14.5918 , 25.3576 , 4.2548
14.6293 , 25.5972 , 4.78638
14.6813 , 25.8637 , 5.33262
14.7394 , 26.1474 , 5.89361
14.73 , 26.3108 , 6.44202
15.7996 , 28.4651 , 7.45159
15.7441 , 28.5642 , 8.04047
15.5078 , 28.3272 , 8.54612
5.19566 , 9.12761 , 3.58225
4.13242 , 7.39193 , 3.81353
4.12984 , 7.4438 , 3.98458
4.93935 , 9.10798 , 4.85862
4.46242 , 8.22591 , 4.64671
4.40712 , 8.18278 , 4.79829
4.15395 , 7.735 , 4.74868
3.99354 , 7.46935 , 4.77596
4.01358 , 7.5762 , 4.9959
3.55091 , 6.67471 , 4.6516
3.4097 , 6.43806 , 4.65927
3.37919 , 6.4306 , 4.79971
3.24464 , 6.20134 , 4.80025
3.33045 , 6.4486 , 5.10696
3.24217 , 6.31843 , 5.16936
2.70976 , 5.19982 , 4.52589
2.7184 , 5.27509 , 4.70658
2.63606 , 5.14403 , 4.73631
2.60899 , 5.13888 , 4.86158
2.39412 , 4.69811 , 4.63305
2.26654 , 4.45269 , 4.54885
2.28724 , 4.55589 , 4.75702
2.13046 , 4.23577 , 4.59191
2.11144 , 4.24316 , 4.71628
2.29838 , 4.76678 , 5.34134
2.13997 , 4.43451 , 5.15111
2.11274 , 4.4315 , 5.28143
1.90557 , 3.96028 , 4.92035
1.86156 , 3.90608 , 4.98647
1.80209 , 3.81274 , 5.00754
1.87458 , 4.07933 , 5.44725
1.80771 , 3.96817 , 5.45462
1.74983 , 3.88046 , 5.48955
1.60264 , 3.52855 , 5.18257
1.57295 , 3.51759 , 5.30197
1.51311 , 3.41598 , 5.30298
1.83328 , 4.52051 , 7.00333
1.73561 , 4.32344 , 6.91434
1.69797 , 4.32716 , 7.11535
1.5515 , 3.95156 , 6.73556
1.42754 , 3.63903 , 6.4283
1.34183 , 3.45429 , 6.30668
1.29051 , 3.39305 , 6.38587
1.22149 , 3.2575 , 6.33384
1.1455 , 3.09131 , 6.21697
1.01467 , 2.65742 , 5.5748
1.00664 , 2.77864 , 5.98758
1.01787 , 3.03503 , 6.71027
0.940529 , 2.8343 , 6.5013
0.874431 , 2.68112 , 6.37792
0.819051 , 2.59084 , 6.38822
0.677554 , 1.7661 , 4.61373
0.640654 , 1.69868 , 4.59928
0.607009 , 1.6644 , 4.66742
0.601066 , 2.17267 , 6.24974
0.549042 , 2.07555 , 6.22093
0.50026 , 1.52346 , 4.79265
0.464519 , 1.45859 , 4.78171
0.428143 , 1.41381 , 4.8365
0.300984 , 2.21775 , 7.94293
0.236792 , 2.10179 , 7.92024
0.327273 , 1.20221 , 4.71417
0.280856 , 1.19332 , 4.93001
0.174948 , 1.35946 , 5.98464
0.132909 , 1.27401 , 5.9379
0.0866479 , 1.20348 , 5.96817
1.6264 , 1.4036 , -1.10326
1.65507 , 1.4507 , -1.10035
1.6887 , 1.50256 , -1.104
1.72632 , 1.55948 , -1.11395
1.76403 , 1.61777 , -1.12225
1.8028 , 1.67722 , -1.12878
1.84121 , 1.73613 , -1.13326
1.87994 , 1.79736 , -1.13629
1.93186 , 1.87435 , -1.15906
1.97127 , 1.93629 , -1.15788
2.02402 , 2.01516 , -1.17567
2.07279 , 2.09064 , -1.18415
2.13178 , 2.17815 , -1.20353
2.18535 , 2.26057 , -1.21332
2.23992 , 2.34437 , -1.22037
2.30388 , 2.44165 , -1.23737
2.36878 , 2.54045 , -1.25094
2.44396 , 2.65277 , -1.27318
2.51393 , 2.76104 , -1.28573
2.60459 , 2.89591 , -1.31756
2.69608 , 3.03268 , -1.3443
2.78742 , 3.17157 , -1.36609
2.88467 , 3.3184 , -1.3881
2.9873 , 3.47545 , -1.41017
3.10517 , 3.65412 , -1.44153
3.21869 , 3.82888 , -1.46144
3.3538 , 4.03357 , -1.4937
3.50007 , 4.25515 , -1.5274
3.65646 , 4.49406 , -1.56179
3.82933 , 4.75856 , -1.60001
3.75869 , 4.69635 , -1.44218
3.56206 , 4.45966 , -1.19687
3.53687 , 4.45549 , -1.08495
3.53331 , 4.47945 , -0.988863
3.5276 , 4.50283 , -0.893115
3.52217 , 4.52306 , -0.796946
3.53127 , 4.56602 , -0.710684
3.36947 , 4.36607 , -0.530387
3.73353 , 5.03894 , -0.240887
19.5179 , 28.7613 , -4.75704
19.4254 , 28.806 , -4.1507
27.6978 , 41.8036 , -4.74868
27.7186 , 42.1026 , -3.91082
17.6833 , 26.8574 , -1.55129
17.5076 , 26.7562 , -0.992433
17.8985 , 27.5389 , -0.490673
16.6581 , 25.7591 , 0.131674
15.9875 , 24.86 , 0.665196
15.6986 , 24.5588 , 1.16315
15.7356 , 24.7767 , 1.66014
15.562 , 24.6552 , 2.14921
16.6943 , 26.8322 , 3.31755
16.4079 , 26.5354 , 3.81962
15.2215 , 24.7396 , 4.12067
15.1705 , 24.8198 , 4.6234
15.2143 , 25.228 , 5.68662
15.0868 , 25.1823 , 6.18042
15.1385 , 25.4428 , 6.74311
15.7541 , 26.6851 , 7.56074
16.6816 , 28.4891 , 8.58118
15.9856 , 27.4698 , 8.86458
15.8389 , 27.6084 , 10.0316
16.9884 , 29.8738 , 11.3932
4.45029 , 7.59939 , 4.2158
4.41683 , 7.59712 , 4.37263
4.39912 , 7.62369 , 4.54549
4.40928 , 7.70419 , 4.74814
4.12145 , 7.21812 , 4.65999
4.30344 , 7.62955 , 5.04215
4.30244 , 7.69314 , 5.24624
3.73183 , 6.64076 , 4.79538
3.52464 , 6.28847 , 4.72906
3.49249 , 6.2822 , 4.86819
3.50105 , 6.35648 , 5.06431
3.49427 , 6.40565 , 5.24769
3.00843 , 5.46576 , 4.73107
2.87269 , 5.23874 , 4.69545
2.81065 , 5.16156 , 4.76602
3.06544 , 5.76077 , 5.37043
2.99645 , 5.67541 , 5.44902
2.94985 , 5.63909 , 5.56784
2.32555 , 4.32569 , 4.56949
2.26199 , 4.2366 , 4.60615
2.34097 , 4.4679 , 4.93919
2.58789 , 5.09477 , 5.67265
2.2422 , 4.42088 , 5.28361
2.16358 , 4.2975 , 5.28896
2.10228 , 4.21366 , 5.33334
1.93902 , 3.87386 , 5.08586
2.34787 , 4.97779 , 6.50412
1.88399 , 3.86686 , 5.34103
1.84294 , 3.83247 , 5.43527
1.75195 , 3.6639 , 5.35997
1.67669 , 3.53368 , 5.32621
1.60184 , 3.39886 , 5.28088
1.57085 , 3.39077 , 5.40754
1.84167 , 4.28006 , 6.84714
1.58988 , 3.62663 , 6.05579
1.87597 , 4.63772 , 7.79691
1.60909 , 3.91209 , 6.8573
1.4353 , 3.45824 , 6.30063
1.38642 , 3.41337 , 6.4059
1.3033 , 3.24581 , 6.29416
1.23743 , 3.13783 , 6.28259
1.09672 , 2.71771 , 5.66967
1.04528 , 2.6426 , 5.69195
1.09362 , 3.02823 , 6.66164
1.04599 , 3.00713 , 6.83235
1.01836 , 3.10389 , 7.27603
0.904506 , 2.72426 , 6.65226
0.814162 , 2.4249 , 6.16497
0.681206 , 1.71543 , 4.60181
0.645337 , 1.67472 , 4.6515
0.66302 , 2.30393 , 6.5412
0.602391 , 2.13767 , 6.32579
0.548234 , 2.0449 , 6.30529
0.49709 , 1.48275 , 4.79524
0.459207 , 1.42831 , 4.8118
0.420202 , 1.39211 , 4.89467
0.341336 , 1.68295 , 6.20285
0.352132 , 1.22252 , 4.69992
0.240901 , 1.52092 , 6.19845
0.210049 , 1.37144 , 5.88166
0.152986 , 1.32821 , 6.03067
0.109777 , 1.24086 , 5.97337
1.68585 , 1.40067 , -1.09703
1.71641 , 1.44748 , -1.0932
1.76085 , 1.50733 , -1.11132
1.79526 , 1.55954 , -1.11232
1.83581 , 1.61741 , -1.11929
1.87622 , 1.67569 , -1.12441
1.92055 , 1.7392 , -1.13514
1.96091 , 1.79929 , -1.13666
2.0166 , 1.87573 , -1.15758
2.06188 , 1.94241 , -1.16197
2.11318 , 2.01506 , -1.17096
2.15932 , 2.08351 , -1.17085
2.23031 , 2.18142 , -1.20176
2.28765 , 2.26333 , -1.20951
2.3438 , 2.3461 , -1.21456
2.41668 , 2.44873 , -1.2356
2.48927 , 2.55222 , -1.25285
2.56279 , 2.65731 , -1.26637
2.64652 , 2.77609 , -1.28779
2.73624 , 2.9026 , -1.31039
2.84261 , 3.05084 , -1.3451
2.93302 , 3.18132 , -1.35786
3.04001 , 3.33378 , -1.38165
3.15307 , 3.49536 , -1.40489
3.28231 , 3.67847 , -1.43671
3.41774 , 3.87202 , -1.46653
3.57037 , 4.08839 , -1.50259
3.71733 , 4.30041 , -1.52585
3.88687 , 4.54381 , -1.55833
3.66726 , 4.29778 , -1.29433
3.57517 , 4.20979 , -1.13443
3.55043 , 4.20589 , -1.02571
3.54094 , 4.22193 , -0.92931
3.53623 , 4.24334 , -0.836747
3.54165 , 4.27868 , -0.751093
3.55271 , 4.31948 , -0.667797
3.43562 , 4.19269 , -0.517138
3.43907 , 4.22293 , -0.433051
3.75113 , 4.75783 , -0.212169
19.6598 , 27.1293 , -4.66322
19.6435 , 27.2798 , -4.09866
20.8306 , 29.1387 , -3.82111
28.1979 , 39.8442 , -4.7666
28.059 , 39.8972 , -3.92209
18.1422 , 25.8082 , -1.61258
17.4286 , 24.9321 , -0.999169
17.6314 , 25.3872 , -0.508233
17.788 , 25.7788 , 0.00139369
15.9757 , 23.2546 , 0.582324
16.1606 , 23.6765 , 1.05916
16.1989 , 23.8858 , 1.54658
16.017 , 23.7636 , 2.02707
16.0018 , 23.8911 , 2.51725
16.0895 , 24.1805 , 3.02448
15.933 , 24.094 , 3.50449
15.9542 , 24.2849 , 4.01461
16.6384 , 25.6811 , 5.22558
15.9456 , 24.7543 , 5.57345
15.8433 , 24.7565 , 6.07525
15.6889 , 24.6766 , 6.55945
15.7985 , 25.0214 , 7.14698
15.7518 , 25.117 , 7.68366
17.0531 , 27.426 , 8.8647
17.0403 , 27.5995 , 9.48362
16.8462 , 27.474 , 10.0144
16.8787 , 27.7272 , 10.6763
16.5815 , 27.4288 , 11.1473
4.71718 , 7.57181 , 4.2194
4.53039 , 7.30412 , 4.25597
4.72954 , 7.70995 , 4.60634
4.55926 , 7.47049 , 4.65185
4.63685 , 7.66723 , 4.91796
4.36217 , 7.23781 , 4.85006
4.45082 , 7.45946 , 5.138
4.41102 , 7.45052 , 5.30069
3.85537 , 6.48901 , 4.87514
3.75856 , 6.36686 , 4.94577
3.63387 , 6.18981 , 4.97678
3.58633 , 6.15693 , 5.10093
3.31188 , 5.68881 , 4.91258
3.05584 , 5.24754 , 4.72365
2.95276 , 5.09869 , 4.73911
2.8953 , 5.03805 , 4.81893
3.18238 , 5.66773 , 5.46697
3.06764 , 5.49746 , 5.47159
2.99535 , 5.41288 , 5.54492
2.98405 , 5.45199 , 5.73013
2.77266 , 5.07491 , 5.52911
2.85523 , 5.31604 , 5.90882
2.85884 , 5.39428 , 6.14345
2.84027 , 5.4262 , 6.34105
2.80338 , 5.42218 , 6.50563
2.20281 , 4.14479 , 5.27344
2.61164 , 5.14968 , 6.54857
2.54411 , 5.07656 , 6.63725
2.44519 , 4.92722 , 6.63503
1.93358 , 3.77423 , 5.37428
1.87688 , 3.70356 , 5.42179
1.75789 , 3.47515 , 5.25759
1.69881 , 3.3952 , 5.28286
1.68097 , 3.42219 , 5.45758
1.62287 , 3.34531 , 5.4887
1.58653 , 3.32753 , 5.60781
1.53761 , 3.27627 , 5.67721
1.50148 , 3.26393 , 5.81268
1.74401 , 4.11417 , 7.3849
1.50883 , 3.50415 , 6.55415
1.42222 , 3.35066 , 6.47063
1.32171 , 3.13846 , 6.26982
1.21356 , 2.88553 , 5.97495
1.19281 , 2.9466 , 6.27507
1.14137 , 2.89967 , 6.3724
1.10235 , 2.91425 , 6.60384
1.05308 , 2.88932 , 6.7643
0.959808 , 2.64974 , 6.44009
0.880715 , 2.46194 , 6.21028
0.723754 , 1.73262 , 4.61394
0.685648 , 1.68553 , 4.64538
0.696688 , 2.08792 , 5.89456
0.651637 , 2.102 , 6.15692
0.601813 , 2.10905 , 6.4202
0.532602 , 1.51827 , 4.8468
0.491758 , 1.44647 , 4.80652
0.452223 , 1.40038 , 4.8512
0.410346 , 1.37789 , 4.98154
0.347278 , 1.48882 , 5.64376
0.27854 , 1.53821 , 6.13424
0.241336 , 1.40254 , 5.87646
0.185396 , 1.35107 , 5.97694
0.141395 , 1.26401 , 5.90996
0.0897839 , 1.19669 , 5.9392
1.71469 , 1.35111 , -1.09376
1.74603 , 1.39661 , -1.0903
1.78233 , 1.44689 , -1.09329
1.81948 , 1.49731 , -1.09461
1.86565 , 1.55736 , -1.10967
1.90182 , 1.60971 , -1.10791
1.94914 , 1.67233 , -1.11934
1.99127 , 1.73082 , -1.1214
2.04329 , 1.79901 , -1.1358
2.09656 , 1.86946 , -1.14795
2.14868 , 1.94068 , -1.15779
2.20183 , 2.01318 , -1.16527
2.26096 , 2.09178 , -1.17676
2.3189 , 2.17122 , -1.18556
2.384 , 2.25761 , -1.19796
2.45427 , 2.35148 , -1.21371
2.5346 , 2.45785 , -1.23823
2.61068 , 2.55998 , -1.25275
2.69892 , 2.67537 , -1.27501
2.78098 , 2.78695 , -1.28752
2.88049 , 2.91891 , -1.31268
2.98591 , 3.05882 , -1.33807
3.09117 , 3.2009 , -1.35821
3.21367 , 3.364 , -1.38818
3.32577 , 3.51726 , -1.402
3.47261 , 3.71179 , -1.4388
3.62007 , 3.90884 , -1.46779
3.77245 , 4.11579 , -1.49383
3.93763 , 4.33843 , -1.52009
3.6053 , 3.97495 , -1.18183
3.57992 , 3.97193 , -1.0747
3.57203 , 3.98919 , -0.980614
3.55753 , 3.99727 , -0.882991
3.55326 , 4.019 , -0.793446
3.55348 , 4.04527 , -0.707057
3.57116 , 4.09356 , -0.630407
3.49291 , 4.02161 , -0.503322
3.50874 , 4.06612 , -0.426879
3.71171 , 4.40221 , -0.256184
3.76482 , 4.49907 , -0.186834
3.93728 , 4.74975 , -0.155359
16.9764 , 21.938 , -3.76441
16.9983 , 22.1073 , -3.3074
16.9797 , 22.2218 , -2.83809
20.2095 , 26.8559 , -2.48162
19.1863 , 25.6374 , -1.76614
17.7971 , 23.9029 , -1.06213
17.6446 , 23.8432 , -0.54944
17.4871 , 23.7761 , -0.0422752
17.5009 , 23.9449 , 0.453407
17.543 , 24.1548 , 0.953595
17.5276 , 24.2855 , 1.45907
17.2761 , 24.0819 , 1.95534
17.2041 , 24.1322 , 2.45648
17.1948 , 24.2738 , 2.96571
17.1014 , 24.2928 , 3.46788
17.5548 , 25.1097 , 4.06692
17.4807 , 25.1632 , 4.59111
16.2776 , 23.554 , 4.84486
16.0176 , 23.3233 , 5.28649
15.8926 , 23.2906 , 5.75965
15.785 , 23.284 , 6.23798
15.8342 , 23.5148 , 6.77624
15.8173 , 23.6485 , 7.29932
17.91 , 27.0241 , 8.76704
17.4068 , 26.6205 , 9.76648
16.9801 , 26.1415 , 10.1597
17.033 , 26.414 , 10.8172
17.8937 , 27.9763 , 12.0013
4.92645 , 7.38883 , 4.00269
4.88964 , 7.38354 , 4.15615
4.99239 , 7.60633 , 4.41579
4.88325 , 7.48481 , 4.52031
4.22311 , 6.45104 , 4.15859
4.2476 , 6.54199 , 4.34771
4.23258 , 6.56811 , 4.50639
4.06946 , 6.34528 , 4.52411
4.26588 , 6.7353 , 4.90139
4.00081 , 6.3334 , 4.80538
3.96132 , 6.32139 , 4.9435
3.84871 , 6.17844 , 4.99628
3.70683 , 5.98265 , 5.00762
3.51328 , 5.69235 , 4.94231
3.25212 , 5.27315 , 4.76754
3.17505 , 5.18444 , 4.83045
3.07554 , 5.0525 , 4.85572
2.97373 , 4.91373 , 4.87063
3.21947 , 5.43071 , 5.44267
3.15509 , 5.36907 , 5.53475
3.13764 , 5.39656 , 5.70722
3.09625 , 5.37925 , 5.84291
2.873 , 5.00273 , 5.63039
2.79251 , 4.90456 , 5.67905
2.88016 , 5.1477 , 6.07954
2.324 , 4.06628 , 5.08023
2.26306 , 3.9959 , 5.1292
2.60528 , 4.78706 , 6.16066
2.74113 , 5.15613 , 6.75473
2.60188 , 4.93481 , 6.66637
2.05885 , 3.79663 , 5.41915
2.00186 , 3.73412 , 5.47528
1.83774 , 3.41968 , 5.19702
1.76921 , 3.32555 , 5.19838
1.76678 , 3.38786 , 5.41992
1.72905 , 3.36885 , 5.53149
1.65344 , 3.25484 , 5.50453
1.62982 , 3.27511 , 5.68044
1.56687 , 3.19266 , 5.6992
1.53524 , 3.19588 , 5.85934
1.48467 , 3.15024 , 5.94369
1.45172 , 3.15748 , 6.12164
1.40014 , 3.11657 , 6.22253
1.28136 , 2.85257 , 5.90213
1.22636 , 2.79175 , 5.95361
1.18108 , 2.76807 , 6.08427
1.14572 , 2.78367 , 6.30476
1.09571 , 2.75283 , 6.43577
1.04705 , 2.7394 , 6.61187
0.954406 , 2.51518 , 6.30171
0.76754 , 1.74545 , 4.61667
0.727926 , 1.69582 , 4.63911
0.746507 , 2.07519 , 5.81162
0.688963 , 1.97257 , 5.7345
0.653975 , 2.11299 , 6.36471
0.594455 , 2.01742 , 6.3243
0.527008 , 1.46901 , 4.82051
0.485476 , 1.41641 , 4.83649
0.443313 , 1.3789 , 4.90925
0.383094 , 1.51147 , 5.62857
0.250712 , 2.01067 , 7.9029
0.266146 , 1.46856 , 6.02683
0.207974 , 1.41674 , 6.12804
0.158606 , 1.33006 , 6.07168
0.115599 , 1.23243 , 5.94477
1.76449 , 1.33714 , -1.07117
1.80764 , 1.3903 , -1.08253
1.84559 , 1.43936 , -1.08441
1.89352 , 1.49783 , -1.09991
1.93146 , 1.5486 , -1.09858
1.97528 , 1.6041 , -1.10291
2.02924 , 1.67019 , -1.12009
2.07324 , 1.72847 , -1.12093
2.12186 , 1.79091 , -1.12658
2.17676 , 1.86022 , -1.13722
2.23243 , 1.92989 , -1.1452
2.2924 , 2.00699 , -1.15784
2.35906 , 2.08908 , -1.17388
2.41462 , 2.16243 , -1.17438
2.48746 , 2.25335 , -1.19114
2.56617 , 2.35067 , -1.21054
2.6512 , 2.45643 , -1.23241
2.73592 , 2.56308 , -1.25029
2.81544 , 2.6657 , -1.25839
2.91317 , 2.78742 , -1.27932
3.02198 , 2.92297 , -1.30645
3.11945 , 3.04883 , -1.31785
3.24731 , 3.20701 , -1.34991
3.3638 , 3.35559 , -1.36584
3.50349 , 3.53134 , -1.39533
3.65011 , 3.71638 , -1.4224
3.81586 , 3.9238 , -1.45556
3.97498 , 4.12709 , -1.47595
3.61309 , 3.7535 , -1.12548
3.59959 , 3.76521 , -1.02943
3.58568 , 3.77482 , -0.933853
3.57039 , 3.78256 , -0.838783
3.56729 , 3.80346 , -0.751841
3.57411 , 3.83728 , -0.671807
3.58045 , 3.86925 , -0.591183
3.56811 , 3.87849 , -0.50055
3.55955 , 3.89339 , -0.413585
3.69032 , 4.09829 , -0.303028
3.73561 , 4.17795 , -0.234695
3.92284 , 4.45619 , -0.123644
20.9637 , 25.6777 , -4.25635
20.0656 , 24.7197 , -3.49353
23.5317 , 29.2309 , -3.67011
28.2738 , 35.4121 , -3.88199
28.2373 , 35.5895 , -3.11572
19.3317 , 24.4087 , -1.26351
19.1497 , 24.328 , -0.725346
18.6101 , 23.7802 , -0.170245
18.4872 , 23.7697 , 0.341744
17.3482 , 22.4216 , 0.861396
17.3461 , 22.5603 , 1.34036
18.318 , 23.9948 , 1.86864
19.0833 , 25.1705 , 2.44216
17.4368 , 23.1122 , 2.81282
17.3404 , 23.1279 , 3.30001
18.0036 , 24.1811 , 3.91155
17.1908 , 23.2194 , 4.2824
16.9743 , 23.0704 , 4.74408
16.9268 , 23.1551 , 5.24256
16.644 , 22.9108 , 5.67774
16.9965 , 23.5588 , 6.30502
16.4118 , 22.8848 , 6.63314
16.5109 , 23.1817 , 7.19493
16.553 , 23.3984 , 7.74788
17.4392 , 25.0166 , 9.28249
18.2417 , 26.3718 , 10.2999
17.9565 , 26.1374 , 10.78
17.4301 , 25.5406 , 11.1091
6.29587 , 9.00011 , 4.70302
5.16011 , 7.34644 , 4.16371
5.61723 , 8.09609 , 4.6712
4.3788 , 6.25314 , 3.94784
4.37454 , 6.29406 , 4.10459
4.49111 , 6.5243 , 4.36595
4.2669 , 6.22204 , 4.34319
4.2714 , 6.2788 , 4.51583
4.22032 , 6.2491 , 4.64095
4.40145 , 6.59309 , 5.00096
4.16713 , 6.26694 , 4.94214
4.18877 , 6.35654 , 5.15171
3.81712 , 5.79756 , 4.91076
3.647 , 5.5637 , 4.88213
3.60337 , 5.54169 , 5.00257
3.4694 , 5.36737 , 5.00524
3.30982 , 5.14457 , 4.96144
3.32239 , 5.21759 , 5.15629
3.3785 , 5.37115 , 5.42665
3.35509 , 5.38807 , 5.58668
3.09287 , 4.9726 , 5.35261
3.06231 , 4.97484 , 5.49414
2.87197 , 4.68179 , 5.34848
2.83117 , 4.66164 , 5.46604
2.87426 , 4.80293 , 5.7529
2.78689 , 4.69989 , 5.79012
2.38144 , 3.9704 , 5.12744
2.30813 , 3.8826 , 5.15363
2.24199 , 3.80605 , 5.19189
2.22677 , 3.8328 , 5.35339
2.11916 , 3.67166 , 5.28391
2.10088 , 3.69391 , 5.44538
2.00366 , 3.5514 , 5.392
1.88496 , 3.35398 , 5.25588
1.84141 , 3.32294 , 5.34301
1.76791 , 3.22359 , 5.33355
1.75536 , 3.26478 , 5.53239
1.70097 , 3.21214 , 5.59357
1.64644 , 3.15821 , 5.65349
1.58633 , 3.08761 , 5.68716
1.5308 , 3.03231 , 5.74434
1.46776 , 2.95576 , 5.76608
1.40903 , 2.88868 , 5.80317
1.35339 , 2.83042 , 5.85607
1.3429 , 2.91488 , 6.19001
1.25574 , 2.76339 , 6.06478
1.2029 , 2.72252 , 6.1593
1.1676 , 2.74898 , 6.40684
1.10516 , 2.68105 , 6.45567
1.02619 , 2.54272 , 6.33784
0.813551 , 1.7597 , 4.62891
0.770723 , 1.70393 , 4.63307
0.745091 , 1.75725 , 4.92543
0.742429 , 2.00328 , 5.77421
0.686414 , 1.92526 , 5.76175
0.64318 , 1.99 , 6.17429
0.566921 , 1.56809 , 5.08244
0.519989 , 1.43513 , 4.84131
0.477043 , 1.38576 , 4.86611
0.429838 , 1.38776 , 5.08283
0.368207 , 1.47405 , 5.64825
0.297766 , 1.52482 , 6.13828
0.248209 , 1.42344 , 6.01584
0.198759 , 1.3349 , 5.94026
0.148203 , 1.25743 , 5.90157
0.0924625 , 1.19507 , 5.93966
1.91341 , 1.43451 , -1.08248
1.95793 , 1.48727 , -1.08902
1.99775 , 1.53779 , -1.08667
2.04321 , 1.59209 , -1.08979
2.09379 , 1.65238 , -1.09841
2.15542 , 1.7232 , -1.11906
2.2009 , 1.78078 , -1.11645
2.25838 , 1.84875 , -1.12536
2.31471 , 1.9175 , -1.13196
2.37823 , 1.99305 , -1.14275
2.44747 , 2.07383 , -1.15696
2.51079 , 2.15165 , -1.16211
2.59209 , 2.24598 , -1.1827
2.6856 , 2.35338 , -1.21182
2.76164 , 2.44549 , -1.21904
2.85597 , 2.55647 , -1.24005
2.94485 , 2.66248 , -1.251
3.04509 , 2.78313 , -1.26904
3.15298 , 2.91023 , -1.28734
3.27914 , 3.05795 , -1.31613
3.39298 , 3.19623 , -1.32912
3.53177 , 3.36016 , -1.3559
3.67149 , 3.52733 , -1.37605
3.83644 , 3.72265 , -1.40767
4.00701 , 3.92677 , -1.43572
3.621 , 3.55139 , -1.07709
3.60864 , 3.56238 , -0.983151
3.60111 , 3.57855 , -0.893928
3.58501 , 3.586 , -0.801216
3.58208 , 3.60639 , -0.716512
3.58366 , 3.63128 , -0.635158
3.58524 , 3.65617 , -0.553805
3.62911 , 3.72907 , -0.494432
3.63482 , 3.75791 , -0.414384
3.67795 , 3.82973 , -0.351017
3.69432 , 3.872 , -0.274546
3.74158 , 3.94945 , -0.209471
3.96878 , 4.25823 , -0.116219
4.14213 , 4.48361 , -0.0789651
19.793 , 22.7796 , -3.87568
20.2797 , 23.4961 , -3.48228
20.247 , 23.6069 , -2.95692
20.1136 , 23.7454 , -1.89595
19.8594 , 23.5885 , -1.34465
20.1154 , 24.0462 , -0.853532
19.1652 , 23.0403 , -0.262139
19.1567 , 23.1731 , 0.241329
19.1738 , 23.3389 , 0.747257
19.4911 , 23.8807 , 1.26105
18.8513 , 23.2304 , 1.75908
18.7945 , 23.3053 , 2.26504
18.5331 , 23.1224 , 2.75322
18.4172 , 23.1206 , 3.24958
18.3325 , 23.1591 , 3.74935
17.5902 , 22.3492 , 4.13114
17.6188 , 22.5302 , 4.6378
18.4439 , 23.9102 , 5.88267
17.9545 , 23.4176 , 6.28257
17.2113 , 22.5824 , 6.5762
17.8574 , 23.599 , 7.33523
17.1759 , 22.8371 , 7.62039
18.4554 , 24.735 , 8.70854
18.17 , 24.5127 , 9.17023
18.6238 , 25.3109 , 9.98925
18.8653 , 25.8248 , 10.7389
6.49555 , 8.68678 , 4.41389
5.93504 , 7.95765 , 4.29227
5.82086 , 7.8534 , 4.41832
6.01659 , 8.19079 , 4.74874
4.57872 , 6.17614 , 3.93706
4.5393 , 6.16451 , 4.06698
4.50782 , 6.16518 , 4.20489
4.44018 , 6.11195 , 4.31333
4.44175 , 6.16213 , 4.48117
4.4788 , 6.26828 , 4.68763
4.40159 , 6.20167 , 4.79108
4.40463 , 6.25784 , 4.97433
4.30005 , 6.15037 , 5.05073
3.83501 , 5.47987 , 4.72286
3.59117 , 5.14617 , 4.61117
3.60447 , 5.21363 , 4.79017
3.56091 , 5.19368 , 4.90543
3.50017 , 5.14377 , 4.99759
3.43736 , 5.09299 , 5.08815
3.36538 , 5.02598 , 5.16545
2.96493 , 4.40858 , 4.74518
2.93534 , 4.40683 , 4.86353
3.01399 , 4.58882 , 5.16112
3.15249 , 4.88275 , 5.58354
3.01488 , 4.69872 , 5.54012
2.90549 , 4.5624 , 5.53747
2.84332 , 4.50971 , 5.61957
2.50014 , 3.94167 , 5.12571
2.40728 , 3.82518 , 5.11683
2.38419 , 3.83672 , 5.25641
2.29989 , 3.73167 , 5.2572
2.22805 , 3.65107 , 5.28434
2.15985 , 3.57591 , 5.31679
2.05219 , 3.41949 , 5.23956
2.01821 , 3.41289 , 5.35971
1.86195 , 3.14902 , 5.11677
1.82947 , 3.14228 , 5.23295
1.88641 , 3.33496 , 5.65746
1.81333 , 3.24599 , 5.66306
1.75133 , 3.18233 , 5.70767
1.68843 , 3.11366 , 5.74223
1.63609 , 3.07355 , 5.82582
1.5989 , 3.07003 , 5.97721
1.5063 , 2.92747 , 5.87844
1.47842 , 2.95292 , 6.08945
1.42283 , 2.91056 , 6.17854
1.34399 , 2.80001 , 6.13401
1.28468 , 2.743 , 6.19366
1.27018 , 2.83738 , 6.58581
1.20399 , 2.77262 , 6.64546
1.08428 , 2.50545 , 6.22755
0.859601 , 1.76884 , 4.63171
0.814777 , 1.71367 , 4.63641
0.772976 , 1.67355 , 4.67679
0.800322 , 2.04191 , 5.84216
0.740832 , 1.96186 , 5.82086
0.68683 , 1.92346 , 5.92079
0.633655 , 1.91388 , 6.11511
0.555749 , 1.46157 , 4.8747
0.511289 , 1.40256 , 4.86138
0.46596 , 1.35664 , 4.89489
0.40671 , 1.489 , 5.61433
0.334017 , 1.57082 , 6.21087
0.278116 , 1.48323 , 6.14734
0.218226 , 1.41756 , 6.17971
0.175323 , 1.29783 , 5.94637
0.124068 , 1.22037 , 5.89673
1.98244 , 1.42644 , -1.07942
2.02883 , 1.47899 , -1.08475
2.07029 , 1.52831 , -1.08118
2.1224 , 1.58605 , -1.09014
2.17483 , 1.64617 , -1.09734
2.22783 , 1.70562 , -1.10209
2.28711 , 1.77193 , -1.11183
2.34619 , 1.83881 , -1.11904
2.4051 , 1.90624 , -1.12381
2.47615 , 1.98529 , -1.13915
2.54202 , 2.06023 , -1.145
2.61997 , 2.14698 , -1.16053
2.71068 , 2.24458 , -1.18455
2.79542 , 2.33934 , -1.19892
2.88011 , 2.43594 , -1.2096
2.9777 , 2.54462 , -1.22769
3.07006 , 2.64929 , -1.23592
3.18668 , 2.77901 , -1.26157
3.29801 , 2.90489 , -1.27656
3.42205 , 3.04344 , -1.29635
3.55313 , 3.1909 , -1.31547
3.71031 , 3.36494 , -1.34749
3.8609 , 3.53472 , -1.36741
4.03162 , 3.72656 , -1.3937
3.63394 , 3.36346 , -1.03543
3.62172 , 3.37398 , -0.943533
3.6074 , 3.38379 , -0.852557
3.6058 , 3.40453 , -0.769681
3.59587 , 3.41754 , -0.683318
3.59785 , 3.44288 , -0.6044
3.5932 , 3.45909 , -0.521653
3.65914 , 3.55031 , -0.474232
3.6662 , 3.57945 , -0.396206
3.69115 , 3.62871 , -0.326528
3.73459 , 3.69729 , -0.26313
4.52238 , 4.55456 , -0.478328
4.5984 , 4.66474 , -0.403496
4.12185 , 4.20719 , -0.0526858
20.9443 , 22.8268 , -3.57433
21.2539 , 23.3155 , -3.11799
23.6968 , 26.1904 , -3.01758
28.6785 , 31.9546 , -3.17046
20.3425 , 22.7306 , -1.41751
20.1124 , 22.6113 , -0.884811
20.0081 , 22.6344 , -0.370815
19.8071 , 22.5443 , 0.145326
19.8553 , 22.7419 , 0.648869
19.8971 , 22.9328 , 1.15857
20.3207 , 23.5753 , 1.68654
20.3284 , 23.8824 , 2.7513
19.3692 , 22.8853 , 3.18194
18.744 , 22.2772 , 3.61232
18.7312 , 22.4051 , 4.11709
18.7512 , 22.5713 , 4.63353
18.7004 , 22.6555 , 5.14121
18.7241 , 22.8322 , 5.67171
18.5442 , 22.7569 , 6.15257
18.4137 , 22.7434 , 6.64616
18.5331 , 23.0442 , 7.22575
19.1188 , 23.9434 , 7.99509
19.2212 , 24.2366 , 8.61419
20.1465 , 25.7707 , 10.2405
20.4726 , 26.3773 , 11.0471
19.3718 , 25.1163 , 11.1254
19.15 , 25.002 , 11.6421
6.46288 , 8.24989 , 4.6347
6.51357 , 8.37841 , 4.87917
6.64247 , 8.61482 , 5.18507
6.53634 , 8.53415 , 5.33816
4.72511 , 6.10466 , 4.20823
4.5908 , 5.96532 , 4.26772
4.55188 , 5.95718 , 4.39988
4.59956 , 6.0706 , 4.60847
4.56666 , 6.07283 , 4.7522
4.64163 , 6.23007 , 5.00206
3.5013 , 4.63281 , 4.0452
3.44327 , 4.58799 , 4.12459
3.60075 , 4.85997 , 4.43847
3.68401 , 5.02674 , 4.68844
3.30482 , 4.50343 , 4.39765
3.32617 , 4.57783 , 4.57414
3.269 , 4.53315 , 4.65521
3.18347 , 4.44679 , 4.69908
3.16377 , 4.46018 , 4.83129
3.02885 , 4.29303 , 4.79649
3.06336 , 4.39518 , 5.01611
2.91806 , 4.20831 , 4.95488
3.12337 , 4.59323 , 5.4753
3.01805 , 4.47334 , 5.4858
