x,y,z,nx,ny,nz
-8.9499518629301722e-01 , 1.4505605144684512e+00 , 7.4275439999999993e-01 , -3.6851000000000002e-02 , 1.9286000000000000e-01 , 9.8053400000000002e-01
-1.0379869179722458e+00 , 1.4263827369809940e+00 , 7.3452799999999985e-01 , -6.6654699999999997e-02 , 1.8185299999999999e-01 , 9.8106400000000005e-01
-1.1991530389389453e+00 , 1.3974257191202266e+00 , 7.1980159999999982e-01 , -8.9309899999999998e-02 , 1.7576000000000000e-01 , 9.8037300000000005e-01
-1.3707795233594373e+00 , 1.3667283854015353e+00 , 7.0473199999999991e-01 , -8.3198300000000003e-02 , 1.6714100000000001e-01 , 9.8241599999999996e-01
-1.5617688413619972e+00 , 1.3315656721984370e+00 , 6.8446239999999992e-01 , -8.8319400000000006e-02 , 1.7488000000000001e-01 , 9.8062099999999996e-01
-1.7633461888152162e+00 , 1.2959729670591487e+00 , 6.6505599999999987e-01 , -8.2172999999999996e-02 , 1.8622700000000000e-01 , 9.7906400000000005e-01
-1.9756416258948652e+00 , 1.2579744624090989e+00 , 6.4724080000000006e-01 , -9.5588400000000004e-02 , 1.7908199999999999e-01 , 9.7917900000000002e-01
-2.2264095081970803e+00 , 1.2117329025125252e+00 , 6.1717440000000012e-01 , -9.3178499999999997e-02 , 1.7517300000000000e-01 , 9.8011800000000004e-01
-2.4791603658417340e+00 , 1.1671596819438126e+00 , 5.9498079999999987e-01 , -8.0033999999999994e-02 , 1.7556900000000000e-01 , 9.8120799999999997e-01
-2.7529049313895371e+00 , 1.1181048006396623e+00 , 5.7242319999999980e-01 , -7.8318600000000002e-02 , 1.7843300000000001e-01 , 9.8082999999999998e-01
-3.0666277345286383e+00 , 1.0616392863511419e+00 , 5.4143119999999989e-01 , -8.8184700000000005e-02 , 1.7259600000000000e-01 , 9.8103700000000005e-01
-3.4285528425454430e+00 , 9.9566987930326478e-01 , 5.0042399999999998e-01 , -1.0506100000000000e-01 , 1.6338900000000001e-01 , 9.8095200000000005e-01
-3.8130602125145865e+00 , 9.2619776851308533e-01 , 4.6356639999999993e-01 , -8.9768000000000001e-02 , 1.6516600000000001e-01 , 9.8217200000000005e-01
-4.2392602282993259e+00 , 8.5054840183015301e-01 , 4.2402560000000000e-01 , -8.5382600000000003e-02 , 1.6795599999999999e-01 , 9.8209000000000002e-01
-4.7346369317407095e+00 , 7.6087049611301683e-01 , 3.7389759999999983e-01 , -9.0170100000000003e-02 , 1.7024000000000000e-01 , 9.8126800000000003e-01
-5.2734255021525200e+00 , 6.6512079211796515e-01 , 3.2651519999999978e-01 , -8.6398500000000003e-02 , 1.6914299999999999e-01 , 9.8179700000000003e-01
-5.9033842699404602e+00 , 5.5191929200224221e-01 , 2.6794239999999991e-01 , -9.3012999999999998e-02 , 1.6350200000000001e-01 , 9.8214900000000005e-01
-6.6827881701045921e+00 , 4.1041236339118026e-01 , 1.8455519999999992e-01 , -9.2822900000000000e-02 , 1.6360200000000000e-01 , 9.8214999999999997e-01
-7.5953326956568237e+00 , 2.4575680441108450e-01 , 8.9613599999999849e-02 , -8.7644299999999994e-02 , 1.5443999999999999e-01 , 9.8410699999999995e-01
-8.6032654276429668e+00 , 6.6345032470619847e-02 , 1.2239999999998918e-03 , -8.3318799999999998e-02 , 1.6147200000000000e-01 , 9.8335399999999995e-01
-9.8549580836111552e+00 , -1.5791636700125977e-01 , -1.1412240000000029e-01 , -7.0566900000000002e-02 , 1.6972300000000001e-01 , 9.8296200000000000e-01
-1.1114938966420382e+01 , -3.7636401499049654e-01 , -1.8653760000000030e-01 , 8.8489799999999993e-02 , -1.6044700000000001e-01 , -9.8307000000000000e-01
-1.3288260776989302e+01 , -7.7014361979868617e-01 , -4.1763600000000034e-01 , -4.9415600000000002e-03 , 2.6615800000000001e-01 , 9.6391700000000002e-01
-1.4955605430045892e+01 , -1.0504245850291656e+00 , -4.6745200000000020e-01 , 8.7286500000000000e-01 , 4.7583999999999999e-01 , 1.0808800000000000e-01
-1.4792010483206660e+01 , -9.6283149640543453e-01 , -1.1905199999999994e-01 , 8.7286500000000000e-01 , 4.7583999999999999e-01 , 1.0808800000000000e-01
-1.4783105623837983e+01 , -9.0625182752850852e-01 , 1.9528799999999991e-01 , 8.7286500000000000e-01 , 4.7583999999999999e-01 , 1.0808800000000000e-01
-8.9918031495534656e+00 , 8.7746587749567717e-01 , 4.9877327999999999e+00 , 6.1904599999999999e-01 , 6.0199400000000003e-01 , -5.0436599999999998e-01
-8.9724186818827700e+00 , 9.1585092201257012e-01 , 5.1876519999999999e+00 , 6.1904599999999999e-01 , 6.0199400000000003e-01 , -5.0436599999999998e-01
-8.9596333002795578e+00 , 9.5381085662131460e-01 , 5.3893496000000001e+00 , 6.1904599999999999e-01 , 6.0199400000000003e-01 , -5.0436599999999998e-01
-9.6495001470056891e+00 , 9.0361407827066231e-01 , 5.7466311999999995e+00 , -1.9494100000000000e-01 , -3.8596999999999998e-01 , 9.0167900000000001e-01
-8.6724827702429934e+00 , 1.0605880960516374e+00 , 5.7328512000000007e+00 , -6.2460099999999996e-01 , -5.0400699999999998e-01 , 5.9653199999999995e-01
-8.3591897737951459e+00 , 1.1334126485471265e+00 , 5.8555504000000003e+00 , -4.9831799999999998e-01 , -5.2985800000000005e-01 , 6.8624300000000005e-01
-7.9555285707689425e+00 , 1.2144535725709749e+00 , 5.9433784000000003e+00 , 5.0535799999999997e-01 , 3.0865599999999999e-01 , -8.0581999999999998e-01
-8.0773669557531722e+00 , 1.2340163757758993e+00 , 6.1725528000000001e+00 , -5.2660300000000004e-01 , -3.2783200000000001e-01 , 7.8435699999999997e-01
-7.6017998212784761e+00 , 1.3200193129843820e+00 , 6.2213288000000002e+00 , 6.6900199999999999e-01 , -6.2466200000000000e-02 , -7.4063100000000004e-01
-7.5508744398035326e+00 , 1.3590677943053207e+00 , 6.3943744000000002e+00 , 6.6900199999999999e-01 , -6.2466200000000000e-02 , -7.4063100000000004e-01
-9.2151946078514140e+00 , 1.2246281786773507e+00 , 7.1691224000000000e+00 , 7.6825399999999999e-01 , 5.4458899999999999e-01 , 3.3646500000000001e-01
-1.1692506501872515e+01 , 1.0217714537865419e+00 , 8.3109383999999995e+00 , -1.6592699999999999e-01 , -9.7001599999999999e-01 , -1.7758699999999999e-01
-9.2507890372729502e+00 , 1.3002357753469671e+00 , 7.6368831999999998e+00 , -7.3094099999999995e-01 , -5.2343499999999998e-01 , -4.3788199999999999e-01
-9.0787634043567156e+00 , 1.3572321250175237e+00 , 7.7984783999999996e+00 , -7.3094099999999995e-01 , -5.2343499999999998e-01 , -4.3788199999999999e-01
-1.1352640195844888e+01 , 1.1982878410296964e+00 , 9.0066151999999988e+00 , -2.9117100000000001e-01 , 5.6109699999999996e-01 , -7.7484900000000001e-01
-5.1445330660010562e+00 , 1.7687034654676927e+00 , 6.4956183999999997e+00 , 7.8082799999999997e-01 , -3.8499299999999997e-01 , -4.9202499999999999e-01
-5.8378215141257295e+00 , 1.7408825473246277e+00 , 6.9790416000000004e+00 , -1.6862099999999999e-01 , 9.8292199999999996e-01 , 7.3700600000000005e-02
-4.5617003236865257e+00 , 1.8687144168634415e+00 , 6.5261320000000005e+00 , 1.9744900000000001e-01 , -7.5593399999999999e-01 , -6.2416099999999997e-01
-4.5873200015770923e+00 , 1.8930210877334639e+00 , 6.6887048000000000e+00 , -2.1034800000000001e-01 , 5.1773599999999997e-01 , 8.2927899999999999e-01
-5.0758259559102230e+00 , 1.8859236606871428e+00 , 7.1026248000000001e+00 , -8.2368200000000003e-01 , -5.7971399999999999e-02 , -5.6408100000000005e-01
-4.1730479129344573e+00 , 1.9737510711923236e+00 , 6.7667256000000000e+00 , -3.2612099999999999e-01 , -5.9566500000000000e-03 , 9.4530899999999995e-01
-3.9673864998363566e+00 , 2.0133290102707129e+00 , 6.7962616000000002e+00 , 5.0872499999999998e-01 , 2.0576800000000001e-01 , -8.3597699999999997e-01
-5.6219542229559396e+00 , 1.9442701689251001e+00 , 7.9397624000000002e+00 , 3.6692999999999998e-01 , -8.3302299999999996e-01 , 4.1404800000000003e-01
-5.5565863100719781e+00 , 1.9809617573550771e+00 , 8.0883783999999999e+00 , 2.5359799999999999e-01 , 9.6703300000000003e-01 , -2.3145900000000001e-02
-3.5984052672165756e+00 , 2.1101865674068829e+00 , 7.0079016000000003e+00 , -4.6179300000000000e-02 , -3.1929700000000000e-01 , 9.4652899999999995e-01
-3.6518329855720353e+00 , 2.1336845128211017e+00 , 7.1921688000000001e+00 , -2.4240200000000001e-01 , -3.8544800000000001e-01 , 8.9032100000000003e-01
-3.2669868295078359e+00 , 2.1754158902693712e+00 , 7.0756160000000001e+00 , -4.8320500000000000e-01 , -4.3392500000000001e-01 , 7.6040900000000000e-01
-3.3585158431264253e+00 , 2.1978437463079668e+00 , 7.2886392000000004e+00 , -8.9997800000000003e-02 , -4.9972200000000000e-01 , 8.6149799999999999e-01
-5.8649744412178402e+00 , 2.1471479533162410e+00 , 9.3217768000000003e+00 , 7.5169100000000000e-01 , 5.9131200000000002e-02 , 6.5686000000000000e-01
-6.0540617912181869e+00 , 2.1811249743334948e+00 , 9.6924848000000008e+00 , -9.3239499999999997e-01 , 2.3844299999999999e-01 , -2.7163399999999999e-01
-1.5268608843910987e+00 , 2.3198685838070934e+00 , 6.2823975999999995e+00 , -2.4912599999999999e-01 , 1.3254600000000000e-01 , 9.5935800000000004e-01
-1.4158152826514110e+00 , 2.3415604931793998e+00 , 6.3030831999999997e+00 , -2.4912500000000001e-01 , 1.3254600000000000e-01 , 9.5935800000000004e-01
-4.7786452391254262e+00 , 2.3234260751387139e+00 , 9.3164727999999997e+00 , 7.9005199999999998e-01 , 3.3191199999999997e-02 , -6.1214100000000005e-01
-4.5324158826085759e+00 , 2.3622183596027395e+00 , 9.3138624000000014e+00 , -6.7342999999999997e-01 , -1.7567800000000000e-01 , 7.1807399999999999e-01
-4.5246946283719174e+00 , 2.4008708116591464e+00 , 9.5231519999999996e+00 , -6.7343100000000000e-01 , -1.7567800000000000e-01 , 7.1807299999999996e-01
-2.8958588127436409e+00 , 2.4316055822828382e+00 , 8.1892272000000013e+00 , -2.2861400000000001e-01 , 2.7629300000000001e-01 , 9.3348699999999996e-01
-2.7266949340722100e+00 , 2.4612595621526201e+00 , 8.1985560000000000e+00 , -2.7988600000000002e-01 , -1.5379900000000000e-02 , 9.5991000000000004e-01
3.1221953862582463e-01 , 2.4407022491892159e+00 , 5.2665775999999997e+00 , -2.5912400000000002e-01 , 3.0266500000000002e-01 , 9.1719600000000001e-01
4.0761004327872574e-01 , 2.4518350925799455e+00 , 5.2420648000000005e+00 , -3.3257599999999998e-01 , 7.8380200000000000e-01 , 5.2444999999999997e-01
4.0228977041192215e-01 , 2.4650460980796174e+00 , 5.3223111999999997e+00 , 6.0186300000000004e-01 , -4.0468199999999999e-01 , -6.8847100000000006e-01
4.4131032489942390e-01 , 2.4777046130497031e+00 , 5.3565792000000005e+00 , -3.9245000000000002e-01 , -3.1487900000000002e-01 , 8.6419599999999996e-01
5.1349686084913637e-01 , 2.4882446835133818e+00 , 5.3505056000000000e+00 , -9.6741800000000000e-01 , 2.1280700000000000e-01 , 1.3716900000000001e-01
5.5276121680855317e-01 , 2.5004857124330515e+00 , 5.3827560000000005e+00 , 5.5147599999999997e-01 , 6.3514499999999996e-01 , -5.4079999999999995e-01
5.5995599685682951e-01 , 2.5147236248901264e+00 , 5.4549631999999999e+00 , 6.1477499999999996e-01 , 4.1033900000000001e-01 , -6.7355299999999996e-01
6.0762459179474337e-01 , 2.5258657739064816e+00 , 5.4782696000000000e+00 , 6.8981499999999996e-01 , 3.8021800000000000e-01 , -6.1610799999999999e-01
2.6508164872562623e-01 , 2.5670784258273907e+00 , 6.0260895999999997e+00 , -4.3126999999999999e-01 , -3.1504399999999999e-01 , -8.4543100000000004e-01
3.3420574077152643e-01 , 2.5801100681640854e+00 , 6.0369992000000003e+00 , -3.3588499999999999e-01 , -3.7980199999999997e-01 , -8.6193500000000001e-01
3.9720677366111556e-01 , 2.5927239592232034e+00 , 6.0550743999999996e+00 , -3.1612699999999999e-01 , -3.1104700000000002e-01 , -8.9627800000000002e-01
5.1169691663866557e-01 , 2.6009307487106050e+00 , 5.9937560000000003e+00 , 3.6027599999999999e-01 , 4.2550399999999999e-01 , 8.3014900000000003e-01
7.6390455889685804e-01 , 2.5925898495553956e+00 , 5.7110319999999994e+00 , -3.9959900000000000e-02 , -5.6544700000000003e-01 , 8.2381599999999999e-01
8.7409004891047859e-01 , 2.5965071319636870e+00 , 5.6327720000000010e+00 , 1.1545600000000000e-01 , -5.7756399999999997e-01 , 8.0813999999999997e-01
3.8880131418544672e-01 , 2.6791042265489375e+00 , 6.5505408000000003e+00 , -3.9624900000000002e-01 , 7.7510800000000002e-01 , 4.9213200000000001e-01
4.5840328605044700e-01 , 2.6930763560777282e+00 , 6.5662343999999999e+00 , 2.8200500000000001e-01 , -7.6866599999999996e-01 , -5.7413000000000003e-01
7.3325815952953088e-01 , 2.6748829326682451e+00 , 6.2078192000000003e+00 , -8.3595200000000003e-01 , 4.5560099999999998e-01 , -3.0596099999999998e-01
5.8008077966680460e-01 , 2.7240904799309607e+00 , 6.6301839999999999e+00 , 5.0862600000000001e-02 , 4.2485299999999998e-01 , 9.0383199999999997e-01
-9.9372768221954910e-01 , 3.0413869300990708e+00 , 9.8982799999999997e+00 , 5.6199200000000005e-01 , 4.4419199999999998e-01 , 6.9775200000000004e-01
5.8193581499884472e-01 , 2.7782807358062316e+00 , 6.9417264000000003e+00 , -2.6105000000000000e-01 , -2.5869500000000000e-02 , 9.6497900000000003e-01
6.4882368222507947e-01 , 2.7952246538987375e+00 , 6.9715536000000000e+00 , -2.9560599999999998e-01 , 1.0041000000000000e-01 , 9.5001899999999995e-01
7.1580659839000349e-01 , 2.8109144564864943e+00 , 7.0004760000000008e+00 , 7.2661399999999998e-01 , -8.4975700000000001e-02 , -6.8177100000000002e-01
7.5604834783934050e-01 , 2.8335672047130731e+00 , 7.0951472000000004e+00 , -2.5199199999999999e-01 , -1.3427600000000001e-01 , 9.5836900000000003e-01
8.5657871296508281e-01 , 2.8414771779122305e+00 , 7.0451855999999999e+00 , -3.7980000000000000e-02 , -7.1361300000000003e-02 , 9.9672700000000003e-01
7.7394642238641720e-01 , 2.9023076352266628e+00 , 7.4665207999999996e+00 , -9.3965100000000001e-01 , -1.1234600000000000e-01 , 3.2316200000000000e-01
-4.1575602430708347e-02 , 3.2055449782810141e+00 , 9.9518191999999992e+00 , -3.9620200000000000e-01 , 2.7672900000000000e-01 , 8.7546800000000002e-01
1.2351648801900335e+00 , 2.8284691845805598e+00 , 6.6187128000000000e+00 , -8.1564300000000001e-01 , -5.1099199999999997e-02 , -5.7629500000000000e-01
2.8690587071714924e-01 , 3.2245387842833200e+00 , 9.7525031999999996e+00 , -5.8854899999999999e-01 , -5.7132099999999997e-01 , -5.7201599999999997e-01
8.0694525437458253e-01 , 3.0824634122525669e+00 , 8.4626432000000005e+00 , 5.4284500000000002e-01 , -8.2771799999999995e-01 , 1.4213400000000001e-01
7.7626039904912014e-01 , 3.1587691061898839e+00 , 8.9244240000000001e+00 , 6.1459200000000003e-01 , -3.7308300000000000e-01 , 6.9504400000000000e-01
8.9936095401046834e-01 , 3.1691001440026145e+00 , 8.8701983999999996e+00 , -1.9523900000000000e-01 , -1.5941400000000000e-01 , 9.6771300000000005e-01
1.1119088242247472e+00 , 3.1281318488169401e+00 , 8.4434135999999995e+00 , -5.7198099999999996e-01 , 5.5372100000000002e-01 , -6.0517100000000001e-01
1.2242196132163954e+00 , 3.1365834269824573e+00 , 8.3828543999999994e+00 , 2.1246200000000001e-01 , -3.3640700000000001e-01 , 9.1743699999999995e-01
1.4362486838414075e+00 , 3.0747538249942887e+00 , 7.8366151999999998e+00 , -3.7796200000000002e-01 , 9.2384100000000002e-01 , -6.0518500000000003e-02
1.3501655391953999e+00 , 3.2161796448255782e+00 , 8.7204487999999998e+00 , 8.0438599999999999e-03 , -9.8936999999999997e-01 , 1.4519699999999999e-01
1.4538623788090921e+00 , 3.2299735870303952e+00 , 8.7056703999999989e+00 , -5.0621000000000005e-01 , -1.7796400000000001e-01 , -8.4384899999999996e-01
1.5125852361576291e+00 , 3.2846735757698253e+00 , 8.9633096000000005e+00 , -7.7612899999999996e-01 , 5.3961300000000001e-01 , -3.2625399999999999e-01
1.6340462673516416e+00 , 3.2839546264341997e+00 , 8.8433975999999994e+00 , -3.7795299999999998e-01 , -8.5937300000000005e-01 , 3.4442600000000001e-01
-8.3999109598248545e-01 , 1.5667512186385824e+00 , 7.3037839999999998e-01 , -4.3790200000000001e-02 , 1.8670400000000001e-01 , 9.8143999999999998e-01
-9.8259243155043929e-01 , 1.5462488238400300e+00 , 7.1940639999999978e-01 , -3.6332099999999999e-02 , 1.8358900000000000e-01 , 9.8233199999999998e-01
-1.1355372848592129e+00 , 1.5237961332239773e+00 , 7.0708240000000000e-01 , -8.2893200000000000e-02 , 1.9233400000000000e-01 , 9.7782199999999997e-01
-1.3066619072173333e+00 , 1.4976900555503545e+00 , 6.8856000000000006e-01 , -8.2717200000000005e-02 , 1.8007899999999999e-01 , 9.8016800000000004e-01
-1.4794474666581947e+00 , 1.4727106184195722e+00 , 6.7526880000000000e-01 , -8.9531399999999997e-02 , 1.6850499999999999e-01 , 9.8162600000000000e-01
-1.6814545858003416e+00 , 1.4426406825171334e+00 , 6.5157759999999998e-01 , -9.9329000000000001e-02 , 1.8680800000000000e-01 , 9.7736199999999995e-01
-1.8931218946349913e+00 , 1.4101286437252822e+00 , 6.2948799999999983e-01 , -8.6713700000000005e-02 , 1.8071300000000001e-01 , 9.7970599999999997e-01
-2.1264293402343100e+00 , 1.3757480466836594e+00 , 6.0407039999999990e-01 , -9.4141500000000003e-02 , 1.7741100000000001e-01 , 9.7962400000000005e-01
-2.3784609684060740e+00 , 1.3375729310803044e+00 , 5.7689519999999983e-01 , -8.7679000000000007e-02 , 1.7510400000000001e-01 , 9.8063800000000001e-01
-2.6434816113492134e+00 , 1.2985104075273464e+00 , 5.5307919999999999e-01 , -8.3067500000000002e-02 , 1.7800800000000000e-01 , 9.8051699999999997e-01
-2.9384339988169756e+00 , 1.2545105462836226e+00 , 5.2472879999999988e-01 , -7.4115399999999998e-02 , 1.7571600000000001e-01 , 9.8164700000000005e-01
-3.2265975172813208e+00 , 1.2140303847620975e+00 , 5.1002319999999979e-01 , -1.0016899999999999e-01 , 1.7581300000000000e-01 , 9.7931400000000002e-01
-3.6477968205670397e+00 , 1.1474240284277077e+00 , 4.4793519999999987e-01 , -1.0127300000000000e-01 , 1.6578300000000001e-01 , 9.8094899999999996e-01
-4.0547614991280865e+00 , 1.0867104792747346e+00 , 4.0758319999999992e-01 , -8.6050100000000004e-02 , 1.6098499999999999e-01 , 9.8319900000000005e-01
-4.4934989556112290e+00 , 1.0224988447826673e+00 , 3.6944639999999995e-01 , -9.1097399999999995e-02 , 1.5951899999999999e-01 , 9.8298300000000005e-01
-5.0326582164099039e+00 , 9.4135079695308810e-01 , 3.1014560000000002e-01 , -9.2667899999999997e-02 , 1.6200899999999999e-01 , 9.8242799999999997e-01
-5.6335597330496858e+00 , 8.5074946007233354e-01 , 2.4872319999999992e-01 , -9.2582399999999995e-02 , 1.6537800000000000e-01 , 9.8187500000000005e-01
-6.3258396045336802e+00 , 7.4743992878147325e-01 , 1.7851279999999980e-01 , -9.0368199999999996e-02 , 1.6627700000000001e-01 , 9.8192900000000005e-01
-7.1132135473214397e+00 , 6.3038354006979080e-01 , 1.0409039999999981e-01 , -9.1431999999999999e-02 , 1.6154700000000000e-01 , 9.8262000000000005e-01
-8.0915643150670817e+00 , 4.8401816494718553e-01 , 1.5671999999999908e-03 , -7.9566499999999998e-02 , 1.7291999999999999e-01 , 9.8171699999999995e-01
-9.2357497011287908e+00 , 3.1309020072320304e-01 , -1.1073200000000005e-01 , -8.7526599999999996e-02 , 1.7322499999999999e-01 , 9.8098500000000000e-01
-1.0655944488950155e+01 , 1.0134863868340482e-01 , -2.5247360000000008e-01 , -7.8138799999999994e-02 , 1.6315499999999999e-01 , 9.8350099999999996e-01
-1.2354686945122241e+01 , -1.5020148304802161e-01 , -4.0900399999999992e-01 , 8.7217199999999995e-02 , -1.4739400000000000e-01 , -9.8522500000000002e-01
-1.4574551590737393e+01 , -4.7927519180602074e-01 , -6.1864719999999984e-01 , 2.2047199999999999e-02 , 3.0902800000000002e-01 , 9.5079700000000000e-01
-1.7079616820389287e+01 , -8.4255870827605550e-01 , -8.0599279999999984e-01 , -3.8380400000000002e-02 , 2.7320299999999997e-01 , 9.6119100000000002e-01
-1.7667891133999170e+01 , -8.7777303451582878e-01 , -5.5816080000000001e-01 , -3.8380400000000002e-02 , 2.7320299999999997e-01 , 9.6118999999999999e-01
-1.7837860274561191e+01 , -8.4335869435638289e-01 , -2.2344719999999985e-01 , -3.8380400000000002e-02 , 2.7320299999999997e-01 , 9.6118999999999999e-01
-1.0484228258321089e+01 , 1.0733490008670032e+00 , 5.2779448000000002e+00 , 3.3908100000000002e-01 , 7.0582999999999996e-01 , -6.2195500000000004e-01
-9.9201135697053591e+00 , 1.1696398956007261e+00 , 5.4018400000000000e+00 , -2.5025799999999998e-01 , -3.6085600000000001e-01 , 8.9841700000000002e-01
-9.2225075363611069e+00 , 1.2743145433466658e+00 , 5.4799856000000009e+00 , 3.8417000000000001e-01 , 7.1259600000000001e-01 , -5.8704400000000001e-01
-8.8401906267322303e+00 , 1.3466355939672554e+00 , 5.6042968000000002e+00 , 5.9502900000000003e-01 , 5.9039200000000003e-01 , -5.4532400000000003e-01
-6.6536427197227948e+00 , 1.5802613645156685e+00 , 5.2804719999999996e+00 , -1.2669000000000000e-02 , 6.6236099999999998e-01 , 7.4907699999999999e-01
-6.5667465642697227e+00 , 1.6161279085314364e+00 , 5.4243144000000001e+00 , -2.1321699999999999e-01 , 8.1111699999999998e-01 , 5.4463499999999998e-01
-6.5176304823289914e+00 , 1.6489732884864852e+00 , 5.5767160000000002e+00 , -2.1321699999999999e-01 , 8.1111699999999998e-01 , 5.4463600000000001e-01
-6.8440768699728611e+00 , 1.6512967169941111e+00 , 5.8400752000000002e+00 , -3.7048799999999998e-01 , 5.3404700000000005e-01 , 7.5995599999999996e-01
-7.7768873528392017e+00 , 1.6085501981994861e+00 , 6.3090320000000002e+00 , 6.6900199999999999e-01 , -6.2466500000000001e-02 , -7.4063100000000004e-01
-7.4957338932263138e+00 , 1.6623063111648473e+00 , 6.4092152000000002e+00 , -7.3243700000000000e-01 , -1.8702500000000000e-01 , 6.5464299999999997e-01
-7.5220587295200954e+00 , 1.7944741304935539e+00 , 7.1966096000000004e+00 , -6.9611999999999996e-01 , -4.3623299999999998e-01 , 5.7019100000000000e-01
-5.0977915457500851e+00 , 1.9685279579832697e+00 , 6.3484688000000000e+00 , -6.7499699999999996e-01 , 1.1822600000000000e-01 , 7.2828700000000002e-01
-4.5509278699664071e+00 , 2.0248607028725805e+00 , 6.2546295999999995e+00 , 5.3039000000000003e-01 , -5.9265599999999996e-01 , -6.0617299999999996e-01
-4.9944304742300076e+00 , 2.0274483172881950e+00 , 6.6102783999999994e+00 , -8.2223999999999997e-01 , -5.5002200000000001e-01 , 1.4627499999999999e-01
-4.6269458267621291e+00 , 2.0724304950163730e+00 , 6.5851936000000002e+00 , 2.4901200000000001e-01 , -8.9965200000000001e-01 , -3.5863600000000001e-01
-4.9819924508802469e+00 , 2.0820934352691345e+00 , 6.9210512000000000e+00 , -7.0164000000000004e-01 , -3.1594899999999998e-01 , -6.3865300000000003e-01
-4.2574303642251339e+00 , 2.1388033222623912e+00 , 6.6930832000000002e+00 , -5.7723500000000005e-01 , -2.5713199999999998e-04 , 8.1657800000000003e-01
-4.2774915829943749e+00 , 2.1644808136299805e+00 , 6.8531392000000002e+00 , -5.9796400000000005e-01 , -2.3652999999999999e-01 , 7.6582799999999995e-01
-6.5384862706271338e+00 , 2.1175632852060731e+00 , 8.3249783999999991e+00 , 6.1886699999999994e-01 , 5.8329299999999995e-01 , -5.2609200000000000e-01
-4.8388307997768090e+00 , 2.2014920884483793e+00 , 7.5020784000000003e+00 , -3.6690000000000000e-01 , 8.6389499999999997e-01 , 3.4506700000000001e-01
-3.9457008553031567e+00 , 2.2520061346376279e+00 , 7.1106328000000003e+00 , -5.5810400000000004e-01 , -4.6589199999999997e-01 , 6.8663300000000005e-01
-3.4587167116177957e+00 , 2.2881783853145801e+00 , 6.9461256000000002e+00 , -1.3117300000000000e-02 , -6.5023600000000004e-01 , 7.5961900000000004e-01
-3.4433046924120703e+00 , 2.3137565410323471e+00 , 7.0816376000000005e+00 , 2.5834099999999999e-01 , 4.2585699999999999e-01 , -8.6712500000000003e-01
-3.3571736075527943e+00 , 2.3395249995846967e+00 , 7.1699544000000008e+00 , -3.7216900000000003e-01 , -6.7340000000000000e-01 , 6.3876599999999994e-01
-3.3708751331788074e+00 , 2.3659186422798553e+00 , 7.3296568000000004e+00 , 4.3155600000000000e-01 , 6.0136299999999998e-01 , -6.7240000000000000e-01
-5.5538482965150617e+00 , 2.3870786154544206e+00 , 9.1349720000000012e+00 , -5.8059899999999996e-03 , 4.3856800000000001e-01 , 8.9867900000000001e-01
-1.5527968291178906e+00 , 2.4150969339291493e+00 , 6.2172312000000005e+00 , -2.4912599999999999e-01 , 1.3254600000000000e-01 , 9.5935800000000004e-01
-1.4826193463864152e+00 , 2.4337157848763344e+00 , 6.2719040000000001e+00 , -2.4912599999999999e-01 , 1.3254600000000000e-01 , 9.5935800000000004e-01
-1.3633744411892428e+00 , 2.4513936711627999e+00 , 6.2849767999999999e+00 , -2.4912599999999999e-01 , 1.3254600000000000e-01 , 9.5935800000000004e-01
-4.8153940182616255e+00 , 2.5297883256370040e+00 , 9.4000368000000005e+00 , -5.1557699999999995e-01 , 8.8513999999999995e-02 , 8.5225899999999999e-01
-3.0685650038680148e+00 , 2.5294101383736027e+00 , 8.0475376000000001e+00 , -2.2861400000000001e-01 , 2.7629300000000001e-01 , 9.3348699999999996e-01
-2.8838285584038390e+00 , 2.5535406071892188e+00 , 8.0486192000000010e+00 , -2.2861400000000001e-01 , 2.7629300000000001e-01 , 9.3348699999999996e-01
-2.8726311098162700e+00 , 2.5825302597902553e+00 , 8.2107136000000001e+00 , -2.2861400000000001e-01 , 2.7629300000000001e-01 , 9.3348699999999996e-01
3.6711947676113210e-01 , 2.4865795140471501e+00 , 5.1581783999999997e+00 , -3.2297599999999999e-01 , 7.8161800000000003e-01 , 5.3362799999999999e-01
3.6692834461800450e-01 , 2.4990390225959760e+00 , 5.2305207999999999e+00 , -5.5855800000000000e-01 , 6.6833900000000002e-01 , 4.9125999999999997e-01
3.8932804737581295e-01 , 2.5102999452786081e+00 , 5.2806487999999998e+00 , -4.5152199999999998e-01 , 7.0528100000000005e-01 , 5.4654100000000005e-01
4.9114645503428656e-01 , 2.5180433732086205e+00 , 5.2459336000000008e+00 , 3.6527500000000002e-01 , -5.1395700000000000e-01 , -7.7615900000000004e-01
4.9417538612199285e-01 , 2.5313169160539171e+00 , 5.3177456000000003e+00 , 5.0175400000000002e-02 , 9.5451200000000003e-01 , 2.9391899999999999e-01
4.8578634602947290e-01 , 2.5452184971575358e+00 , 5.4060312000000001e+00 , 8.8921899999999998e-01 , 5.1492999999999997e-02 , -4.5457500000000001e-01
5.1356985985906567e-01 , 2.5570890091846739e+00 , 5.4550672000000002e+00 , 6.1477499999999996e-01 , 4.1033900000000001e-01 , -6.7355299999999996e-01
5.5490107066215000e-01 , 2.5681901774493476e+00 , 5.4873592000000002e+00 , -7.1281799999999995e-01 , 8.0815599999999998e-03 , 7.0130199999999998e-01
6.0255121600666484e-01 , 2.5782716787588256e+00 , 5.5106760000000001e+00 , 8.6813799999999997e-01 , 1.4321400000000001e-01 , -4.7521200000000002e-01
6.1388320272970143e-01 , 2.5924112469597613e+00 , 5.5832784000000002e+00 , 9.4131399999999998e-01 , 1.2583600000000000e-01 , -3.1319799999999998e-01
4.3541567806756754e-01 , 2.6279701131578985e+00 , 5.9272272000000008e+00 , 3.6027599999999999e-01 , 4.2550399999999999e-01 , 8.3014900000000003e-01
5.0903753405759589e-01 , 2.6373972327743846e+00 , 5.9264784000000006e+00 , 3.6027599999999999e-01 , 4.2550399999999999e-01 , 8.3014900000000003e-01
5.6401072064391644e-01 , 2.6482585828412581e+00 , 5.9499616000000000e+00 , 1.5082599999999999e-01 , 1.3778899999999999e-01 , -9.7891099999999998e-01
8.1316205733760993e-01 , 2.6333174849572520e+00 , 5.6654592000000008e+00 , 5.3718299999999997e-02 , -5.7163699999999995e-01 , 8.1874599999999997e-01
8.5298867481697394e-01 , 2.6441720204377783e+00 , 5.7014744000000004e+00 , 1.1545600000000000e-01 , -5.7756399999999997e-01 , 8.0813999999999997e-01
6.9495146897509219e-01 , 2.6872849834037664e+00 , 6.0767376000000004e+00 , -4.8827700000000002e-01 , -3.1922000000000000e-01 , 8.1220899999999996e-01
7.7255599606807701e-01 , 2.6954915681869620e+00 , 6.0602432000000004e+00 , -8.8791100000000001e-01 , 4.2788999999999999e-01 , 1.6889199999999999e-01
7.9004944931325971e-01 , 2.7131573605330814e+00 , 6.1516696000000000e+00 , -8.1381899999999996e-01 , 5.6749099999999997e-01 , -1.2510900000000000e-01
6.2418010890371378e-01 , 2.7684925085399366e+00 , 6.6017295999999996e+00 , -1.4953700000000000e-02 , 1.7775800000000000e-01 , 9.8396099999999997e-01
-9.3196336989244521e-01 , 3.1264793885938165e+00 , 9.8858519999999999e+00 , 4.7266999999999998e-01 , 4.4161000000000000e-01 , 7.6260300000000003e-01
6.0055505721231262e-01 , 2.8285547411692038e+00 , 6.9686000000000003e+00 , 1.3732000000000000e-01 , 2.1341700000000002e-02 , -9.9029699999999998e-01
6.8977589256521488e-01 , 2.8371964435229282e+00 , 6.9514712000000003e+00 , 3.6494100000000002e-01 , -4.0733199999999997e-02 , -9.3013900000000005e-01
7.4071367669535859e-01 , 2.8558202553108210e+00 , 7.0178752000000006e+00 , 7.3124299999999998e-01 , 1.3440299999999999e-01 , -6.6874500000000003e-01
8.0989256012416155e-01 , 2.8690370334040827e+00 , 7.0455288000000005e+00 , -1.5018500000000001e-01 , -4.3665700000000002e-02 , 9.8769300000000004e-01
8.7822704112968331e-01 , 2.8830376798110020e+00 , 7.0716536000000003e+00 , -8.3326399999999995e-02 , 5.5938200000000002e-03 , 9.9650700000000003e-01
7.7160214690454088e-01 , 2.9542851901301503e+00 , 7.5711656000000005e+00 , -9.3965100000000001e-01 , -1.1234600000000000e-01 , 3.2316200000000000e-01
8.4604152306935543e-01 , 2.9701176053948806e+00 , 7.6076696000000004e+00 , -6.9070100000000001e-01 , -8.2816799999999996e-02 , 7.1838299999999999e-01
1.2795915508228823e+00 , 2.8507934403186481e+00 , 6.5756255999999995e+00 , 3.5670199999999999e-02 , -3.1891399999999998e-01 , 9.4711199999999995e-01
7.6812837673268652e-01 , 3.0969320996008949e+00 , 8.4049440000000004e+00 , 5.4284500000000002e-01 , -8.2771799999999995e-01 , 1.4213400000000001e-01
7.9467230750966666e-01 , 3.1437720449699631e+00 , 8.6589120000000008e+00 , -4.8907200000000001e-01 , 5.8701199999999998e-01 , 6.4515599999999995e-01
8.4733411219823873e-01 , 3.1829390631744716e+00 , 8.8434704000000011e+00 , 1.3744300000000001e-01 , 6.6275700000000004e-01 , 7.3611300000000002e-01
9.4614048413511243e-01 , 3.2016204427918806e+00 , 8.8781959999999991e+00 , -1.1471400000000000e-02 , -1.3062399999999999e-01 , 9.9136599999999997e-01
1.1801210177784944e+00 , 3.1424897211937139e+00 , 8.3500320000000006e+00 , 1.5038399999999999e-01 , -8.8139299999999998e-01 , 4.4780799999999998e-01
1.2701321430577268e+00 , 3.1593776045248569e+00 , 8.3792767999999995e+00 , 9.5834900000000005e-04 , -4.1149599999999997e-01 , 9.1141099999999997e-01
1.3749915021205243e+00 , 3.1653636659060416e+00 , 8.3365223999999998e+00 , -5.8344700000000005e-01 , 4.4339600000000001e-01 , -6.8043299999999995e-01
1.3843060754870868e+00 , 3.2461591157741458e+00 , 8.7975023999999991e+00 , 6.6377300000000000e-02 , 9.9084099999999997e-01 , 1.1759400000000000e-01
1.5051437174810163e+00 , 3.2439449125972630e+00 , 8.6910792000000008e+00 , -6.3963899999999996e-01 , -1.5021100000000001e-01 , -7.5385599999999997e-01
1.5740558034841334e+00 , 3.2879446968822408e+00 , 8.8978208000000016e+00 , 4.1656399999999999e-01 , -7.9193499999999994e-01 , 4.4644499999999998e-01
1.6802406403953352e+00 , 3.2987730127637054e+00 , 8.8793503999999999e+00 , 6.7754199999999998e-01 , 7.0386199999999999e-01 , -2.1334100000000000e-01
-9.2333443348344657e-01 , 1.6621319172829143e+00 , 7.0640639999999988e-01 , -5.6575599999999997e-02 , 1.7434800000000000e-01 , 9.8305799999999999e-01
-1.0583410696671582e+00 , 1.6470369447596225e+00 , 7.0280799999999988e-01 , -7.0197800000000005e-02 , 1.7650299999999999e-01 , 9.8179399999999994e-01
-1.2299820400494164e+00 , 1.6255196752193135e+00 , 6.8060399999999999e-01 , -8.7436799999999995e-02 , 1.8302900000000000e-01 , 9.7921199999999997e-01
-1.4022508338883255e+00 , 1.6051103209559456e+00 , 6.6376639999999987e-01 , -7.5494599999999995e-02 , 1.7872399999999999e-01 , 9.8099899999999995e-01
-1.5948492405784194e+00 , 1.5823350962171507e+00 , 6.4137519999999992e-01 , -9.3175700000000000e-02 , 1.7889400000000000e-01 , 9.7944600000000004e-01
-1.8069130092922361e+00 , 1.5563855050452207e+00 , 6.1489679999999991e-01 , -9.1105300000000000e-02 , 1.7731200000000000e-01 , 9.7992900000000005e-01
-2.0208323352909483e+00 , 1.5307951524025074e+00 , 5.9507440000000011e-01 , -8.9203099999999994e-02 , 1.8018700000000001e-01 , 9.7957899999999998e-01
-2.2642891988803102e+00 , 1.5006784513190181e+00 , 5.6756640000000003e-01 , -9.5796199999999998e-02 , 1.7491599999999999e-01 , 9.7991200000000001e-01
-2.5285086642160799e+00 , 1.4689708254659506e+00 , 5.3826960000000001e-01 , -8.2055400000000001e-02 , 1.7612200000000000e-01 , 9.8094199999999998e-01
-2.8047577219306241e+00 , 1.4364588552086848e+00 , 5.1295599999999997e-01 , -8.0711000000000005e-02 , 1.7358699999999999e-01 , 9.8150599999999999e-01
-3.1198705004209346e+00 , 1.3985763218511842e+00 , 4.7903120000000010e-01 , -8.3158499999999996e-02 , 1.7504700000000001e-01 , 9.8104199999999997e-01
-3.4672447569363332e+00 , 1.3573555599246505e+00 , 4.4274559999999985e-01 , -1.0242100000000000e-01 , 1.5497500000000000e-01 , 9.8259500000000000e-01
-3.8359895272623223e+00 , 1.3145065966967207e+00 , 4.0963200000000000e-01 , 8.7123699999999998e-02 , -1.5959699999999999e-01 , -9.8333000000000004e-01
-4.2744072979069614e+00 , 1.2610720991975963e+00 , 3.6182319999999990e-01 , 8.5722800000000002e-02 , -1.6043099999999999e-01 , -9.8331800000000003e-01
-4.7637430452690035e+00 , 1.2026313291953401e+00 , 3.0989599999999995e-01 , 9.1573900000000000e-02 , -1.4953200000000000e-01 , -9.8450700000000002e-01
-5.2964336424060994e+00 , 1.1390938452509227e+00 , 2.6032959999999994e-01 , 9.1203599999999996e-02 , -1.5599199999999999e-01 , -9.8353900000000005e-01
-5.9694176335652687e+00 , 1.0575931789030077e+00 , 1.8126880000000001e-01 , -9.8446900000000004e-02 , 1.5455400000000000e-01 , 9.8306700000000002e-01
-6.7361734182263024e+00 , 9.6508830150830538e-01 , 9.6082400000000012e-02 , -8.7350499999999998e-02 , 1.5135000000000001e-01 , 9.8461299999999996e-01
-7.5770184907956537e+00 , 8.6509578050474567e-01 , 1.5908799999999834e-02 , 9.1160900000000003e-02 , -1.5039500000000000e-01 , -9.8441400000000001e-01
-8.6121985827550454e+00 , 7.4173406319340618e-01 , -8.9942399999999978e-02 , -8.3729899999999996e-02 , 1.4784300000000000e-01 , 9.8546000000000000e-01
-9.8530514882808475e+00 , 5.9382225839007985e-01 , -2.1400400000000008e-01 , -8.9255100000000004e-02 , 1.4031199999999999e-01 , 9.8607599999999995e-01
-1.1391527404877566e+01 , 4.1121141863590549e-01 , -3.6833999999999989e-01 , -8.5939199999999993e-02 , 1.5048500000000001e-01 , 9.8487000000000002e-01
-1.3302387703924063e+01 , 1.8423282158547893e-01 , -5.5334560000000010e-01 , 8.7562100000000004e-02 , -1.3823299999999999e-01 , -9.8652099999999998e-01
-1.5676588121996549e+01 , -9.4891897506950595e-02 , -7.6947840000000012e-01 , -8.9340100000000006e-02 , 3.0473200000000000e-01 , 9.4823900000000005e-01
-2.6676083024957599e+01 , -1.2595742948694091e+00 , -1.0130255999999997e+00 , -2.6286199999999999e-02 , 2.7377200000000002e-01 , 9.6143500000000004e-01
-1.0430267241442710e+01 , 1.4253842675651163e+00 , 5.0866160000000002e+00 , -2.6123700000000000e-01 , 2.7267900000000000e-01 , 9.2596000000000001e-01
-1.0417167825484725e+01 , 1.4649359195432523e+00 , 5.3120776000000003e+00 , -2.6123700000000000e-01 , 2.7267900000000000e-01 , 9.2596000000000001e-01
-1.0237680810190747e+01 , 1.5154861233100037e+00 , 5.5064536000000004e+00 , -1.9045699999999999e-01 , -2.3463999999999998e-03 , 9.8169300000000004e-01
-9.6279887652623621e+00 , 1.5952830598908396e+00 , 5.6057736000000000e+00 , -3.0392599999999997e-01 , -4.5853699999999997e-01 , 8.3508800000000005e-01
-6.8525421978674963e+00 , 1.8090613040824572e+00 , 5.1930911999999996e+00 , 9.8886700000000005e-01 , 1.1812599999999999e-01 , 9.0494099999999994e-02
-6.8461730635931435e+00 , 1.8382606996042021e+00 , 5.3604584000000006e+00 , 9.8886700000000005e-01 , 1.1812599999999999e-01 , 9.0494099999999994e-02
-6.7370066596552629e+00 , 1.8726779700001996e+00 , 5.5018776000000003e+00 , -1.2669000000000000e-02 , 6.6236099999999998e-01 , 7.4907699999999999e-01
-6.1365160193257182e+00 , 1.9339495968678755e+00 , 5.5019608000000000e+00 , 2.3821400000000001e-01 , -2.1901200000000001e-01 , -9.4619699999999995e-01
-6.1540424287483546e+00 , 1.9605759920116055e+00 , 5.6672479999999998e+00 , 2.3821400000000001e-01 , -2.1901200000000001e-01 , -9.4619699999999995e-01
-9.7915914908241657e+00 , 1.8103014685999308e+00 , 6.9912200000000002e+00 , -9.8082499999999995e-01 , 2.4034099999999999e-02 , 1.9340099999999999e-01
-2.2755541450417436e+00 , 2.2057877737967075e+00 , 4.7711319999999997e+00 , 9.5458600000000005e-01 , -2.2533300000000001e-01 , -1.9491000000000000e-01
-7.7416603227244636e+00 , 2.0091876032252469e+00 , 6.9242232000000001e+00 , -5.5867100000000003e-01 , 7.1018199999999998e-01 , -4.2840299999999998e-01
-5.3372682589539435e+00 , 2.1288502515899812e+00 , 6.1708160000000003e+00 , 9.4609299999999996e-01 , 3.2308799999999999e-01 , -2.2871800000000001e-02
-5.0342226636993317e+00 , 2.1642293435757520e+00 , 6.2003000000000004e+00 , 2.1332899999999999e-01 , 7.4248999999999998e-01 , 6.3497999999999999e-01
-4.6180577337178335e+00 , 2.2018569996693071e+00 , 6.1701712000000004e+00 , 6.1790900000000004e-01 , -3.8593899999999998e-01 , -6.8501100000000004e-01
-4.5086113925341174e+00 , 2.2290302876510255e+00 , 6.2651231999999997e+00 , -8.0567299999999997e-01 , 3.9541100000000001e-01 , 4.4106899999999999e-01
-4.5280858270987583e+00 , 2.2525983060282138e+00 , 6.4201248000000000e+00 , -8.8296900000000000e-01 , 4.2954399999999998e-01 , 1.8935900000000000e-01
-5.2331797778599078e+00 , 2.2647985554041021e+00 , 6.9205208000000002e+00 , -9.2198199999999997e-01 , -2.6119500000000000e-02 , 3.8635000000000003e-01
-4.3454651251671041e+00 , 2.3059591019419758e+00 , 6.6238087999999999e+00 , -8.6416700000000002e-01 , -1.9643600000000000e-01 , 4.6328000000000003e-01
-4.2846892273037707e+00 , 2.3320102983956046e+00 , 6.7397584000000004e+00 , -8.0631200000000003e-01 , -1.4951000000000000e-01 , 5.7228199999999996e-01
-4.1126004270641543e+00 , 2.3577048454297436e+00 , 6.7933288000000003e+00 , -7.3528400000000005e-01 , -2.6992300000000002e-01 , 6.2168999999999996e-01
-4.1103277717563893e+00 , 2.3833466818899520e+00 , 6.9421320000000000e+00 , -6.5389100000000000e-01 , -3.0044199999999999e-01 , 6.9437899999999997e-01
-4.2476186210291180e+00 , 2.4093062640509335e+00 , 7.1787424000000000e+00 , -3.8408999999999999e-01 , -7.7105400000000002e-01 , 5.0788900000000003e-01
-4.3169194386635237e+00 , 2.4362506100107648e+00 , 7.3820208000000003e+00 , 9.1803300000000004e-02 , 9.1840400000000000e-01 , 3.8484499999999999e-01
-3.7650821761911306e+00 , 2.4593057168310981e+00 , 7.1820080000000006e+00 , -1.9954300000000000e-01 , -3.1732700000000003e-01 , 9.2708500000000005e-01
-2.7497021557311259e+00 , 2.4723644920784444e+00 , 6.6413536000000004e+00 , -7.1668699999999996e-01 , 9.6918000000000004e-02 , -6.9062699999999999e-01
-2.6786701552524246e+00 , 2.4933637593378899e+00 , 6.7238568000000001e+00 , 7.6461199999999996e-01 , 6.3497499999999996e-01 , -1.1034099999999999e-01
-2.4486637143277905e+00 , 2.5101593792163968e+00 , 6.6876336000000007e+00 , 2.6004800000000000e-01 , -9.1505999999999998e-01 , 3.0828699999999998e-01
-5.6500337977551061e+00 , 2.6154872724759990e+00 , 9.2625696000000008e+00 , -6.2405699999999997e-01 , 5.1321700000000003e-01 , -5.8920300000000003e-01
-1.5948794627909382e+00 , 2.5291506868652984e+00 , 6.2789343999999998e+00 , -6.4532900000000004e-02 , 3.1879999999999999e-02 , 9.9740600000000001e-01
-1.3784700514172967e+00 , 2.5400490413004437e+00 , 6.2158168000000007e+00 , 3.5938100000000001e-02 , 2.1148400000000001e-01 , 9.7672000000000003e-01
-1.3710233091536113e+00 , 2.5588022971686462e+00 , 6.3210128000000001e+00 , 2.0227899999999999e-01 , -7.9446399999999995e-01 , 5.7263399999999998e-01
-1.2759463936234865e+00 , 2.5735760559211598e+00 , 6.3514016000000009e+00 , 6.6084500000000002e-01 , -6.3650099999999998e-01 , 3.9768300000000001e-01
-3.0647956148663775e+00 , 2.6836168682096062e+00 , 8.0917063999999996e+00 , -2.2861400000000001e-01 , 2.7629300000000001e-01 , 9.3348699999999996e-01
-2.9015697445956388e+00 , 2.7033550929919872e+00 , 8.1138271999999994e+00 , -2.2861400000000001e-01 , 2.7629300000000001e-01 , 9.3348699999999996e-01
-2.8883552422824774e+00 , 2.7323928308097907e+00 , 8.2765768000000008e+00 , -2.2861400000000001e-01 , 2.7629300000000001e-01 , 9.3348699999999996e-01
-2.6659458044919173e+00 , 2.7481896496365872e+00 , 8.2337912000000006e+00 , -1.4312900000000001e-01 , 2.5322699999999998e-01 , 9.5676000000000005e-01
-2.4748053869867128e+00 , 2.7638662773076268e+00 , 8.2153519999999993e+00 , 4.3267499999999998e-01 , -4.9084000000000000e-01 , 7.5622000000000000e-01
-1.0084771405455206e+00 , 2.6784011156059275e+00 , 6.8128288000000001e+00 , 7.1757099999999996e-01 , 5.1636899999999997e-01 , -4.6739100000000000e-01
4.6969137621497259e-01 , 2.5741013748699233e+00 , 5.2929727999999994e+00 , -2.2711899999999999e-01 , 9.0989299999999995e-01 , 3.4714699999999998e-01
-8.9070671202438856e-01 , 2.7124614263812110e+00 , 6.9437856000000000e+00 , -6.4548799999999995e-01 , -6.7108199999999996e-01 , 3.6468400000000001e-01
-1.9145068753727670e+00 , 2.8366855448567874e+00 , 8.3063415999999997e+00 , -1.1651000000000000e-01 , 6.2451500000000004e-01 , 7.7227299999999999e-01
5.2819692331028989e-01 , 2.6091015867583676e+00 , 5.4633664000000000e+00 , -5.8357300000000001e-01 , -2.2510200000000000e-01 , 7.8023900000000002e-01
5.8921592449653337e-01 , 2.6165215358678164e+00 , 5.4710520000000002e+00 , 8.6813799999999997e-01 , 1.4321400000000001e-01 , -4.7521200000000002e-01
5.5584631997979317e-01 , 2.6347207923316489e+00 , 5.6016968000000000e+00 , -9.5471499999999998e-01 , -2.6214199999999999e-01 , 1.4071700000000001e-01
3.4431587436316713e-01 , 2.6777003499238958e+00 , 5.9859664000000006e+00 , -3.1612600000000002e-01 , -3.1104700000000002e-01 , -8.9627800000000002e-01
6.2101777531907443e-01 , 2.6577240146931884e+00 , 5.6981672000000003e+00 , -3.5942200000000002e-01 , -5.4598700000000000e-01 , 7.5677799999999995e-01
6.9077151726060348e-01 , 2.6645609473908980e+00 , 5.6942880000000002e+00 , 4.0509899999999999e-01 , -3.2695800000000003e-01 , -8.5381099999999999e-01
7.3559277888851127e-01 , 2.6738355520540100e+00 , 5.7235224000000002e+00 , -3.6612400000000000e-01 , -5.0368700000000000e-01 , 7.8246499999999997e-01
7.7108920969886996e-01 , 2.6858189544271189e+00 , 5.7694904000000005e+00 , -1.2726699999999999e-01 , -5.9171700000000005e-01 , 7.9603599999999997e-01
8.7698734174115844e-01 , 2.6842097484707383e+00 , 5.6997792000000000e+00 , 1.3626400000000000e-01 , -5.9784199999999998e-01 , 7.8994699999999995e-01
9.2851772301262292e-01 , 2.6928536371149936e+00 , 5.7167832000000001e+00 , 8.3070600000000006e-01 , -5.3554999999999997e-01 , 1.5203100000000000e-01
7.6905674328075668e-01 , 2.7424354053003555e+00 , 6.1133144000000001e+00 , 3.2298800000000001e-03 , -5.1789300000000005e-01 , 8.5543899999999995e-01
8.1719911610366713e-01 , 2.7541351951420530e+00 , 6.1500367999999996e+00 , 3.2300699999999998e-03 , -5.1789399999999997e-01 , 8.5543899999999995e-01
-1.1178343485720186e+00 , 3.2160973176583592e+00 , 1.0074944800000001e+01 , -5.6199200000000005e-01 , -4.4419199999999998e-01 , -6.9775200000000004e-01
5.5770935889980100e-01 , 2.8628249372438290e+00 , 6.9556208000000002e+00 , -9.7980700000000004e-02 , -6.8505899999999995e-02 , 9.9282800000000004e-01
6.3820840402099388e-01 , 2.8716193310317020e+00 , 6.9584807999999994e+00 , -1.7767100000000000e-01 , 1.1420600000000000e-01 , 9.7744100000000000e-01
7.1462030653707598e-01 , 2.8811026679271605e+00 , 6.9691615999999996e+00 , -6.3495999999999997e-01 , -1.8769000000000001e-02 , 7.7231700000000003e-01
7.6332873338762175e-01 , 2.8985742060385760e+00 , 7.0451648000000002e+00 , 4.6449699999999999e-01 , 1.3681399999999999e-01 , -8.7494300000000003e-01
7.8633772810486136e-01 , 2.9251617687326710e+00 , 7.1873431999999999e+00 , -9.7178600000000004e-01 , -2.1283400000000000e-01 , -1.0165500000000000e-01
7.2837879420751728e-01 , 2.9808491461241489e+00 , 7.5514992000000003e+00 , -9.3965100000000001e-01 , -1.1234600000000000e-01 , 3.2316200000000000e-01
-1.4625831514265109e-02 , 3.2868591407622891e+00 , 9.8288392000000009e+00 , -5.6938500000000003e-02 , 1.5737799999999999e-01 , 9.8589599999999999e-01
1.2393790814115535e+00 , 2.8696811934886508e+00 , 6.5817303999999996e+00 , -3.7723899999999999e-01 , 6.3017500000000004e-02 , -9.2396999999999996e-01
7.3802921224553564e-01 , 3.1112472690506587e+00 , 8.3272456000000012e+00 , 4.8196800000000001e-01 , -8.4843900000000005e-01 , 2.1876499999999999e-01
8.0301772225917811e-01 , 3.1381630157868479e+00 , 8.4430912000000014e+00 , 5.4284500000000002e-01 , -8.2771799999999995e-01 , 1.4213400000000001e-01
7.8549359136554342e-01 , 3.2050287717714498e+00 , 8.8555656000000003e+00 , -3.9809200000000000e-01 , 3.8557999999999998e-01 , -8.3237700000000003e-01
9.0839107976905131e-01 , 3.2091427389943705e+00 , 8.8020680000000002e+00 , -5.6230999999999998e-01 , 7.2214800000000001e-01 , 4.0287800000000001e-01
1.0216715639637797e+00 , 3.2160824287469669e+00 , 8.7763591999999999e+00 , 9.9961400000000000e-01 , -2.3078999999999999e-02 , 1.5492700000000000e-02
1.2337007035977501e+00 , 3.1600997904646579e+00 , 8.3171055999999997e+00 , 4.6974300000000002e-01 , 7.5482000000000005e-01 , -4.5780799999999999e-01
1.5107385901514643e+00 , 3.0465162125829441e+00 , 7.4699216000000002e+00 , -2.6493600000000000e-01 , 7.6862899999999998e-02 , 9.6119800000000000e-01
1.5957554288268478e+00 , 3.0513769420003714e+00 , 7.4436615999999995e+00 , 1.6386600000000001e-01 , -5.4265100000000001e-04 , -9.8648300000000000e-01
1.4456950846818049e+00 , 3.2517694625599711e+00 , 8.7330223999999994e+00 , 5.8454899999999999e-01 , 2.3820900000000000e-01 , 7.7560300000000004e-01
1.5144366903231905e+00 , 3.2938776720669756e+00 , 8.9408872000000006e+00 , -7.7612899999999996e-01 , 5.3961300000000001e-01 , -3.2625399999999999e-01
1.6367008098803466e+00 , 3.2869758254575014e+00 , 8.8220255999999999e+00 , 3.3865299999999998e-01 , -6.7034700000000003e-01 , 6.6026399999999996e-01
-1.1670067035667264e+00 , 1.7468306867808860e+00 , 6.6371439999999993e-01 , -7.5998800000000005e-02 , 1.7946599999999999e-01 , 9.8082400000000003e-01
-1.3387929604674706e+00 , 1.7310555741019966e+00 , 6.4362159999999990e-01 , 8.3863999999999994e-02 , -1.7931500000000000e-01 , -9.8021100000000005e-01
-1.4956630501060126e+00 , 1.7199573936557164e+00 , 6.3939919999999995e-01 , -8.2712700000000000e-02 , 1.8500600000000000e-01 , 9.7924999999999995e-01
-1.7159192332302355e+00 , 1.6977260993769585e+00 , 6.0326959999999996e-01 , -9.5240500000000006e-02 , 1.6058300000000000e-01 , 9.8241699999999998e-01
-1.9125695594969883e+00 , 1.6810673242598553e+00 , 5.8930239999999978e-01 , -8.8625899999999994e-02 , 1.6011600000000001e-01 , 9.8311199999999999e-01
-2.1552592675266666e+00 , 1.6583686603240786e+00 , 5.5661519999999998e-01 , -9.9251599999999995e-02 , 1.4921599999999999e-01 , 9.8381099999999999e-01
-2.3999256761691772e+00 , 1.6362604156773068e+00 , 5.3169679999999997e-01 , -8.6067000000000005e-02 , 1.4835899999999999e-01 , 9.8518099999999997e-01
-2.6752914015257678e+00 , 1.6120591165852236e+00 , 5.0039279999999997e-01 , -8.2022700000000004e-02 , 1.4492099999999999e-01 , 9.8603799999999997e-01
-2.9538507487827141e+00 , 1.5876985683877376e+00 , 4.7814719999999999e-01 , -8.8887700000000000e-02 , 1.4010300000000001e-01 , 9.8613899999999999e-01
-3.2901782515140710e+00 , 1.5570513852527177e+00 , 4.3873119999999988e-01 , -1.0014800000000000e-01 , 1.5545900000000001e-01 , 9.8275299999999999e-01
-3.6667492904698431e+00 , 1.5227626980696842e+00 , 3.9373039999999992e-01 , -1.0415000000000001e-01 , 1.6399800000000000e-01 , 9.8094700000000001e-01
-4.0669074836936190e+00 , 1.4871541371321220e+00 , 3.5295199999999993e-01 , -8.0427799999999994e-02 , 1.6231999999999999e-01 , 9.8345499999999997e-01
-4.4987669060135227e+00 , 1.4490032366981986e+00 , 3.1387919999999991e-01 , -8.2742499999999997e-02 , 1.5275400000000000e-01 , 9.8479399999999995e-01
-5.0307573465170048e+00 , 1.4010665496746697e+00 , 2.5230079999999999e-01 , -9.2129900000000001e-02 , 1.5537400000000001e-01 , 9.8355000000000004e-01
-5.6253115484912053e+00 , 1.3477291881020017e+00 , 1.8745679999999987e-01 , -9.3455200000000002e-02 , 1.5148400000000001e-01 , 9.8403200000000002e-01
-6.3413326328204018e+00 , 1.2818122890673109e+00 , 1.0275919999999994e-01 , -9.4781599999999994e-02 , 1.5111100000000000e-01 , 9.8396200000000000e-01
-7.1421954249179418e+00 , 1.2097309870803694e+00 , 1.6823999999999950e-02 , -8.7649099999999994e-02 , 1.5399800000000000e-01 , 9.8417600000000005e-01
-8.1165214452777619e+00 , 1.1212481223426356e+00 , -9.2687999999999882e-02 , -8.1078999999999998e-02 , 1.4814300000000000e-01 , 9.8563699999999999e-01
-9.1283617391863849e+00 , 1.0349763975700759e+00 , -1.7811360000000009e-01 , -8.1411499999999998e-02 , 1.4270099999999999e-01 , 9.8641199999999996e-01
-1.0545228366656380e+01 , 9.0627825852818833e-01 , -3.3394720000000033e-01 , -8.1054000000000001e-02 , 1.4632999999999999e-01 , 9.8590999999999995e-01
